62 62 62 62 62 62 62 60 60 60 61 61 62 62 62 61 61 61 61 61 61 61 61 62 62 61 61 61 60 60 60 60 60 60 61 61 62 62 62 62 62 62 62 62 62 62 62 62 62 63 64 64 63 62 62 63 63 63 63 63 63 63 63 62 62 62 62 62 62 62 62 63 63 63 63 63 63 63 63 63 63 63 63 63 63 63 63 64 64 64 64 64 64 64 64 65 65 64 64 64 63 63 63 63 63 63 62 62 61 61 61 60 60 61 61 61 62 62 62 62 62 62 62 62 62 62 62 63 63 63 64 64 65 65 65 64 64 65 65 65 66 66 66 66 66 66 67 67 67 68 68 69 69 69 69 70 70 70 70 71 75 81 84 86 88 89 91 92 93 95 97 98 99 99 99 99 96 92 89 87 85 83 80 79 78 77 76 74 72 71
62 62 62 62 62 62 62 60 60 61 61 61 61 62 62 61 61 61 61 61 61 61 61 62 61 61 61 60 60 60 60 60 60 60 61 61 62 62 62 62 62 62 62 62 62 62 62 62 62 63 64 64 63 62 62 63 63 63 63 63 63 63 63 62 62 62 62 62 62 62 62 63 63 63 63 63 63 63 63 63 63 63 63 63 63 63 63 64 64 64 64 64 64 64 64 65 64 64 64 63 63 63 63 63 63 63 62 62 61 61 61 60 61 61 61 62 62 62 62 62 62 62 62 62 62 62 62 63 63 63 64 64 65 65 65 64 65 65 65 66 66 66 66 67 67 68 68 69 69 69 69 69 69 69 69 69 69 69 69 73 77 82 86 89 91 93 95 98 98 100 101 102 103 103 103 99 96 92 89 87 85 82 80 79 78 77 75 74 72 71
63 63 63 63 63 63 63 61 61 61 61 61 61 61 61 61 61 61 61 61 61 61 61 61 61 61 60 60 60 59 59 60 60 60 61 61 62 62 62 62 62 62 62 62 62 62 62 62 62 62 63 63 62 62 62 63 63 63 63 63 63 63 63 62 62 62 62 62 62 62 62 63 63 63 63 63 63 63 63 63 63 63 63 63 63 63 63 64 64 64 64 64 64 64 64 64 64 64 63 63 63 62 62 63 63 63 62 62 61 61 61 61 61 61 62 62 62 63 63 63 63 63 63 63 63 63 63 63 63 63 64 64 65 65 65 65 65 65 66 66 66 67 67 69 69 69 70 70 70 71 71 70 70 70 70 70 70 70 70 76 79 85 89 91 94 97 100 101 102 103 105 105 106 106 106 100 97 93 89 87 85 82 80 79 78 77 75 74 72 71
63 63 63 63 63 63 63 61 61 61 61 61 61 61 61 61 61 61 61 61 61 61 61 61 61 60 60 60 59 59 59 60 60 60 61 61 62 62 62 62 62 62 62 62 62 62 62 62 62 62 61 61 62 62 62 63 63 63 63 63 63 63 63 62 62 62 62 62 62 62 62 63 63 63 63 63 63 63 63 63 63 63 63 63 63 63 63 64 64 64 64 64 64 64 64 64 64 63 63 63 62 62 62 63 63 63 62 62 61 61 61 61 61 62 62 62 63 63 63 63 63 63 63 63 63 63 63 63 63 63 64 64 65 65 65 65 65 66 66 66 67 67 67 70 70 70 70 71 71 71 72 71 71 71 72 72 72 73 73 79 82 87 90 93 96 100 103 102 103 105 106 107 108 108 108 102 99 94 91 89 86 83 80 79 79 78 76 74 73 72
62 62 62 62 62 62 62 62 62 61 61 61 61 60 60 61 61 61 61 61 61 61 61 60 60 60 60 59 59 59 58 60 60 60 61 61 62 62 62 62 62 62 62 62 62 62 62 62 62 61 61 61 61 62 62 63 63 63 63 63 63 63 63 62 62 62 62 62 62 62 62 63 63 63 63 63 63 63 63 63 63 63 63 63 63 63 63 64 64 64 64 64 64 64 64 63 63 63 63 62 62 62 61 63 63 63 62 62 61 61 61 62 62 62 62 63 63 63 64 64 64 64 64 64 64 64 64 63 63 63 64 64 65 65 65 66 66 66 66 67 67 67 68 70 70 70 70 71 71 72 72 72 72 73 74 76 77 78 78 82 85 89 92 94 97 101 104 103 104 106 108 110 111 111 111 104 101 96 93 90 88 84 82 81 80 79 78 76 74 73
62 62 62 62 62 62 62 62 62 62 61 61 60 60 60 61 61 61 61 61 61 61 61 60 60 60 59 59 59 58 58 60 60 60 61 61 62 62 62 62 62 62 62 62 62 62 62 62 62 61 60 60 61 62 62 63 63 63 63 63 63 63 63 62 62 62 62 62 62 62 62 63 63 63 63 63 63 63 63 63 63 63 63 63 63 63 63 64 64 64 64 64 64 64 64 63 63 63 62 62 62 61 61 63 63 63 62 62 61 61 61 62 62 62 63 63 63 64 64 64 64 64 64 64 64 64 64 63 63 63 64 64 65 65 65 66 66 66 67 67 67 68 68 69 69 70 70 70 71 71 71 73 74 75 77 79 81 83 84 84 87 90 92 94 97 101 104 103 105 107 110 112 114 115 116 107 103 98 95 92 89 86 83 82 82 81 79 77 76 75
61 61 61 61 61 61 61 62 62 62 61 61 60 60 60 61 61 61 61 61 61 61 61 60 60 60 59 59 58 58 58 60 60 60 61 61 62 62 62 62 62 62 62 62 62 62 62 63 62 60 59 59 60 62 63 63 63 63 63 63 63 63 63 62 62 62 62 62 62 62 62 63 63 63 63 63 63 63 63 63 63 63 63 63 63 63 63 64 64 64 64 64 64 64 64 63 63 63 62 62 61 61 61 63 63 63 62 62 61 61 61 62 62 62 63 63 64 64 64 64 64 64 64 64 64 64 64 63 63 63 64 64 65 65 65 66 66 66 67 67 68 68 68 69 69 69 70 70 71 71 71 74 75 77 79 82 84 86 87 86 88 91 93 94 97 101 104 104 106 108 112 114 117 118 119 108 104 100 96 93 90 87 84 83 83 82 80 78 77 76
61 61 61 61 61 61 61 62 62 62 62 62 62 62 62 60 60 60 60 60 60 60 60 58 58 58 59 59 60 60 60 61 61 61 61 61 61 61 61 61 61 61 61 61 61 61 61 62 62 62 62 62 62 62 62 62 62 62 63 63 64 64 64 63 63 63 62 62 61 61 61 63 63 63 63 63 63 63 63 62 63 63 64 64 63 63 62 64 64 64 63 63 62 62 62 61 61 61 62 62 63 63 63 61 61 61 61 61 61 61 61 63 63 63 63 63 63 63 63 63 63 63 63 63 63 63 63 64 64 64 65 65 66 66 66 67 67 68 68 68 69 69 69 70 70 70 70 70 71 73 73 76 79 83 85 86 87 89 91 91 93 96 98 99 101 104 107 107 109 112 115 117 118 117 116 110 107 103 99 96 93 88 85 88 87 86 84 82 80 79
61 61 61 61 61 61 61 62 62 62 62 62 62 62 62 60 60 60 60 60 60 60 60 58 58 59 59 59 60 60 60 61 61 61 61 61 61 61 61 61 61 61 61 61 61 61 61 62 62 62 62 62 62 62 62 62 62 62 63 63 64 64 64 63 63 63 62 62 61 61 61 63 63 63 63 63 63 63 63 62 63 63 64 64 63 63 62 64 64 63 63 63 62 62 62 61 61 61 62 62 63 63 63 62 62 62 62 62 62 62 62 63 63 63 63 63 63 63 63 63 63 63 63 63 63 63 63 64 64 65 65 65 66 66 66 68 68 68 69 69 69 70 70 71 71 71 71 72 74 75 76 80 82 86 88 89 90 92 94 94 96 99 100 100 102 104 107 109 111 114 116 118 117 116 115 108 105 102 99 97 94 91 88 88 88 86 84 82 80 79
61 61 61 61 61 61 61 62 62 62 62 62 62 62 62 60 60 60 60 60 60 60 60 58 59 59 59 60 60 60 60 61 61 61 61 61 61 61 61 61 61 61 61 61 61 61 61 62 62 62 62 62 62 62 62 62 62 62 63 63 64 64 64 63 63 63 62 62 61 61 61 63 63 63 63 63 63 63 63 62 63 63 64 64 63 63 62 64 63 63 63 62 62 62 62 61 61 61 62 62 63 63 63 63 63 63 63 63 63 63 63 63 63 63 63 63 63 63 63 63 63 63 63 63 63 63 63 64 65 65 65 66 66 66 66 68 68 69 69 69 70 70 70 71 71 72 73 74 76 78 79 83 86 90 92 93 94 96 98 98 100 102 103 102 103 105 107 111 113 116 118 119 118 117 116 108 106 102 100 99 97 94 91 90 89 87 85 83 81 80
60 60 60 60 60 60 60 61 61 61 61 61 61 61 61 60 60 60 60 60 60 60 60 59 59 59 60 60 60 61 61 61 61 61 61 61 61 61 61 61 61 61 61 61 61 61 61 62 62 62 62 62 62 62 62 62 62 62 63 63 64 64 64 63 63 63 62 62 61 61 61 63 63 63 63 63 63 63 63 62 63 63 64 64 63 63 62 63 63 63 62 62 62 61 61 61 61 61 62 62 63 63 63 64 64 64 64 64 64 64 64 63 63 63 63 63 63 63 63 64 64 64 64 64 64 64 64 65 65 65 66 66 66 67 67 67 67 68 68 69 69 69 69 70 71 71 73 74 77 79 80 85 88 91 93 94 96 98 100 102 104 106 106 105 105 106 108 112 114 117 120 121 121 120 119 113 110 106 104 102 100 97 94 91 90 89 87 84 82 80
60 60 60 60 60 60 60 61 61 61 61 61 61 61 61 60 60 60 60 60 60 60 60 59 59 60 60 60 61 61 61 61 61 61 61 61 61 61 61 61 61 61 61 61 61 61 61 62 62 62 62 62 62 62 62 62 62 62 63 63 64 64 64 63 63 63 62 62 61 61 61 63 63 63 63 63 63 63 63 62 63 63 64 64 63 63 62 63 63 62 62 62 61 61 61 61 61 61 62 62 63 63 63 64 64 64 64 64 64 64 64 63 63 63 63 63 63 63 63 64 64 64 64 64 64 64 64 65 65 66 66 66 67 67 67 66 66 67 67 68 68 68 68 70 70 71 72 74 76 78 79 83 86 90 92 93 94 96 98 104 105 107 108 107 107 109 111 112 114 118 121 124 124 124 123 119 116 112 108 106 102 98 95 93 92 90 88 85 83 81
59 59 59 59 59 59 59 60 60 60 60 60 60 60 60 60 60 60 60 60 60 60 60 60 60 60 60 61 61 61 62 61 61 61 61 61 61 61 61 61 61 61 61 61 61 61 61 62 62 62 62 62 62 62 62 62 62 62 63 63 64 64 64 63 63 63 62 62 61 61 61 63 63 63 63 63 63 63 63 62 63 63 64 64 63 63 62 62 62 62 62 61 61 61 60 61 61 61 62 62 63 63 63 64 64 64 64 64 64 64 64 63 63 63 63 63 63 63 63 65 65 65 65 65 65 65 65 66 66 66 66 67 67 67 68 67 67 67 68 68 68 69 69 71 71 71 72 74 76 77 79 81 84 87 90 90 92 94 96 103 105 107 108 109 110 112 114 114 117 120 123 125 126 125 125 122 119 114 111 108 104 100 97 95 94 92 89 86 84 82
59 59 59 59 59 59 59 60 60 60 60 60 60 60 60 60 60 60 60 60 60 60 60 60 60 60 61 61 61 62 62 61 61 61 61 61 61 61 61 61 61 61 61 61 61 61 61 62 62 62 62 62 62 62 62 62 62 62 63 63 64 64 64 63 63 63 62 62 61 61 61 63 63 63 63 63 63 63 63 62 63 63 64 64 63 63 62 62 62 62 61 61 61 60 60 61 61 61 62 62 63 63 63 63 63 63 63 63 63 63 63 63 63 63 63 63 63 63 63 65 65 65 65 65 65 65 65 66 66 66 67 67 67 68 68 69 69 70 70 70 71 71 71 74 74 74 74 75 77 78 79 79 82 86 88 89 90 92 94 100 103 106 108 110 112 115 118 119 121 123 126 126 125 124 123 120 117 113 110 108 105 101 98 96 95 93 90 87 84 82
59 59 59 59 59 59 59 60 60 60 60 60 60 60 60 60 60 60 60 60 60 60 60 60 60 60 61 61 62 62 62 61 61 61 61 61 61 61 61 61 61 61 61 61 61 61 61 62 62 62 62 62 62 62 62 62 62 62 63 63 64 64 64 63 63 63 62 62 61 61 61 63 63 63 63 63 63 63 63 62 63 63 64 64 63 63 62 62 62 62 61 61 60 60 60 61 61 61 62 62 63 63 63 63 63 63 63 63 63 63 63 63 63 63 63 63 63 63 63 65 65 65 65 65 65 65 65 66 66 66 67 67 68 68 68 71 71 72 72 72 73 73 73 76 76 76 76 77 78 79 79 78 81 85 87 88 89 91 93 98 101 105 108 110 113 117 120 123 125 126 127 126 124 122 120 117 114 111 109 107 105 102 99 97 96 93 91 88 85 83
59 59 59 59 59 59 59 58 58 58 58 58 58 58 58 61 60 60 59 59 60 60 61 61 61 61 61 61 61 61 61 61 61 61 61 61 61 61 61 62 62 62 62 62 62 62 62 62 62 62 62 62 62 62 62 62 62 62 62 62 62 62 62 62 62 62 62 62 62 62 62 63 63 63 63 63 63 63 63 64 64 64 64 64 64 64 64 64 63 63 62 62 61 61 61 62 62 62 62 62 62 62 62 63 63 63 63 63 63 63 63 64 64 64 64 64 64 64 64 64 64 64 65 65 66 66 66 68 67 67 67 67 68 69 70 71 72 72 73 73 74 74 74 74 75 76 78 79 79 80 80 82 84 87 89 91 92 92 92 98 100 103 105 107 110 114 118 124 125 127 128 127 124 120 118 114 112 110 108 107 105 102 99 96 94 91 89 89 87 84
59 59 59 59 59 59 59 58 58 58 58 58 58 58 58 61 60 60 59 59 60 60 61 61 61 61 61 61 61 61 61 61 61 61 61 61 61 61 61 62 62 62 62 62 62 62 62 62 62 62 62 62 62 62 62 62 62 62 62 62 62 62 62 62 62 62 62 62 62 62 62 63 63 63 63 63 63 63 63 64 64 64 64 64 64 64 64 63 63 62 62 61 61 60 60 62 62 62 62 62 62 62 62 63 63 63 63 63 63 63 63 64 64 64 64 64 64 64 64 64 64 64 65 65 66 66 66 68 67 67 67 67 68 69 70 72 73 73 74 75 76 77 77 77 78 79 81 82 83 83 83 84 85 88 90 92 93 94 94 98 100 103 105 107 110 114 117 123 124 126 127 126 124 120 118 113 112 109 108 107 105 102 99 96 94 91 89 89 87 84
59 59 59 59 59 59 59 58 58 58 58 58 58 58 58 61 60 60 59 59 60 60 61 61 61 61 61 61 61 61 61 61 61 61 61 61 61 61 61 62 62 62 62 62 62 62 62 62 62 62 62 62 62 62 62 62 62 62 62 62 62 62 62 62 62 62 62 62 62 62 62 63 63 63 63 63 63 63 63 64 64 64 64 64 63 63 63 61 61 61 61 60 60 60 60 62 62 62 62 62 62 62 62 63 63 63 63 63 63 63 63 64 64 64 64 64 64 64 64 64 64 64 65 65 66 66 66 68 67 67 67 67 68 69 70 73 73 74 76 77 78 79 80 80 81 82 84 85 86 86 87 86 87 89 92 94 96 96 97 99 101 104 106 107 110 114 117 122 123 125 127 126 123 120 118 113 111 109 108 107 105 101 98 96 94 91 89 89 87 84
60 60 60 60 60 60 60 59 59 59 59 59 59 59 59 61 60 60 59 59 60 60 61 61 61 61 61 61 61 61 61 61 61 61 61 61 61 61 61 62 62 62 62 62 62 62 62 62 62 62 62 62 62 62 62 62 62 62 62 62 62 62 62 62 62 62 62 62 62 62 62 63 63 63 63 63 63 63 63 64 64 64 63 63 63 63 62 60 60 60 60 60 60 60 60 62 62 62 62 62 62 62 62 63 63 63 63 63 63 63 63 64 64 64 64 64 64 64 64 64 64 64 65 65 66 66 66 68 67 67 67 67 68 69 70 71 72 73 75 77 79 80 81 81 82 84 86 87 88 89 89 88 89 91 93 96 98 99 100 100 102 105 106 108 111 114 118 121 123 125 126 126 123 120 117 113 111 109 107 107 104 101 98 96 94 91 89 89 87 84
60 60 60 60 60 60 60 59 59 59 59 59 59 59 59 61 60 60 59 59 60 60 61 61 61 61 61 61 61 61 61 61 61 61 61 61 61 61 61 62 62 62 62 62 62 62 62 62 62 62 62 62 62 62 62 62 62 62 62 62 62 62 62 62 62 62 62 62 62 62 62 63 63 63 63 63 63 63 63 64 64 64 63 63 62 62 61 60 60 60 60 60 60 60 60 62 62 62 62 62 62 62 62 63 63 63 63 63 63 63 63 64 64 64 64 64 64 64 64 64 64 64 65 65 66 66 66 68 67 67 67 67 68 69 70 70 70 72 73 75 77 78 79 80 81 83 85 87 88 88 89 90 91 92 94 97 100 102 103 102 104 107 108 109 112 116 119 123 124 126 127 126 123 119 117 112 110 108 107 106 104 100 98 96 94 91 89 89 87 84
61 61 61 61 61 61 61 60 60 60 60 60 60 60 60 61 60 60 59 59 60 60 61 61 61 61 61 61 61 61 61 61 61 61 61 61 61 61 61 62 62 62 62 62 62 62 62 62 62 62 62 62 62 62 62 62 62 62 62 62 62 62 62 62 62 62 62 62 62 62 62 63 63 63 63 63 63 63 63 64 64 63 63 62 61 61 61 60 60 60 60 61 61 61 61 62 62 62 62 62 62 62 62 63 63 63 63 63 63 63 63 64 64 64 64 64 64 64 64 64 64 64 65 65 66 66 66 68 67 67 67 67 68 69 70 69 69 71 72 73 75 76 76 78 79 81 84 86 87 88 88 91 91 92 95 97 100 103 105 105 107 109 111 112 114 117 120 126 127 128 128 126 123 118 116 112 110 108 107 106 104 100 97 96 94 91 89 89 87 84
61 61 61 61 61 61 61 60 60 60 60 60 60 60 60 61 60 60 59 59 60 60 61 61 61 61 61 61 61 61 61 61 61 61 61 61 61 61 61 62 62 62 62 62 62 62 62 62 62 62 62 62 62 62 62 62 62 62 62 62 62 62 62 62 62 62 62 62 62 62 62 63 63 63 63 63 63 63 63 64 64 63 63 62 61 60 60 60 60 61 61 62 62 63 63 62 62 62 62 62 62 62 62 63 63 63 63 63 63 63 63 64 64 64 64 64 64 64 64 64 64 64 65 65 66 66 66 68 67 67 67 67 68 69 70 70 70 71 72 73 74 75 75 77 79 81 83 85 87 88 88 91 91 92 94 97 101 104 106 108 109 112 113 114 116 119 122 129 130 131 130 127 123 118 115 112 110 108 106 105 103 100 97 96 94 91 89 89 87 84
61 61 61 61 61 61 61 60 60 60 60 60 60 60 60 61 60 60 59 59 60 60 61 61 61 61 61 61 61 61 61 61 61 61 61 61 61 61 61 62 62 62 62 62 62 62 62 62 62 62 62 62 62 62 62 62 62 62 62 62 62 62 62 62 62 62 62 62 62 62 62 63 63 63 63 63 63 63 63 64 64 63 62 61 61 60 59 61 61 61 62 62 63 63 64 62 62 62 62 62 62 62 62 63 63 63 63 63 63 63 63 64 64 64 64 64 64 64 64 64 64 64 65 65 66 66 66 68 67 67 67 67 68 69 70 71 72 72 73 73 74 74 74 77 79 81 84 86 87 88 89 91 91 92 94 97 101 104 106 109 111 113 114 115 117 120 123 132 132 132 131 128 123 118 114 112 110 107 106 105 103 100 97 96 94 91 89 89 87 84
61 61 61 61 61 61 61 61 61 61 61 61 61 61 61 59 59 59 60 60 61 61 61 61 61 61 61 61 61 61 61 62 61 61 60 60 61 61 62 63 63 63 63 63 63 63 63 62 62 62 62 62 62 62 62 62 62 62 62 62 62 62 62 63 63 63 63 63 63 63 63 62 62 62 62 62 62 62 62 63 63 63 62 62 61 61 61 61 61 61 61 61 61 61 61 62 62 62 62 62 62 62 62 62 62 62 62 62 62 62 62 62 62 62 63 63 64 64 64 65 65 65 65 65 65 65 65 65 65 66 67 67 68 69 69 71 71 72 73 73 74 75 75 78 79 79 81 82 83 84 84 86 88 91 93 95 97 100 103 104 107 112 116 118 121 125 127 132 132 132 131 128 125 122 120 116 113 110 107 106 105 102 100 99 98 96 94 92 90 89
61 61 61 61 61 61 61 61 61 61 61 61 61 61 61 59 59 59 60 60 61 61 61 61 61 61 61 61 61 61 61 62 61 61 60 60 61 61 62 62 62 62 62 62 62 62 62 62 62 62 62 62 62 62 62 62 62 62 62 62 62 62 62 63 63 63 63 63 63 63 63 62 62 62 62 62 62 62 62 63 63 63 62 62 61 61 61 61 61 61 61 61 61 61 61 62 62 62 62 62 62 62 62 62 62 62 62 62 62 62 62 62 62 63 63 63 64 64 64 65 65 65 65 65 65 65 65 65 65 66 67 68 68 69 69 70 70 71 72 73 73 74 74 77 78 78 80 81 82 83 83 85 88 91 93 94 96 100 102 104 107 111 114 117 119 123 126 133 133 133 132 129 125 122 120 118 115 111 109 109 108 106 104 103 102 100 97 95 93 91
61 61 61 61 61 61 61 61 61 61 61 61 61 61 61 59 59 60 60 60 60 61 61 61 61 61 61 61 61 61 61 62 61 61 60 60 61 61 62 62 62 62 62 62 62 62 62 62 62 62 62 62 62 62 62 62 62 62 62 62 62 62 62 63 63 63 63 63 63 63 63 62 62 62 62 62 62 62 62 63 63 63 62 62 61 61 61 61 61 61 61 61 61 61 61 62 62 62 62 62 62 62 62 62 62 62 62 62 62 62 62 62 63 63 63 64 64 64 64 65 65 65 65 65 65 65 65 65 66 66 67 68 69 69 70 70 70 71 72 72 73 74 74 76 76 77 78 80 81 82 82 85 87 91 93 94 96 99 102 103 106 110 113 115 117 121 124 133 134 134 133 131 127 123 121 120 118 115 113 113 112 111 109 109 107 105 102 99 96 94
61 61 61 61 61 61 61 61 61 61 61 61 61 61 61 60 60 60 60 60 60 60 60 61 61 61 61 61 61 61 61 62 61 61 60 60 61 61 62 61 61 61 61 61 61 61 61 62 62 62 62 62 62 62 62 62 62 62 62 62 62 62 62 63 63 63 63 63 63 63 63 62 62 62 62 62 62 62 62 63 63 63 62 62 61 61 61 61 61 61 61 61 61 61 61 62 62 62 62 62 62 62 62 62 62 62 62 62 62 62 62 63 63 63 64 64 64 65 65 66 66 66 66 66 66 66 66 66 66 67 67 68 69 70 70 72 72 72 73 74 75 75 76 75 76 77 78 79 80 81 81 85 88 91 93 94 96 99 102 103 106 109 111 113 116 120 123 132 133 135 135 134 131 127 125 123 121 118 117 117 117 115 114 114 113 110 106 102 99 96
61 61 61 61 61 61 61 61 61 61 61 61 61 61 61 60 60 60 60 60 60 60 60 61 61 61 61 61 61 61 61 62 61 61 60 60 61 61 62 61 61 61 61 61 61 61 61 62 62 62 62 62 62 62 62 62 62 62 62 62 62 62 62 63 63 63 63 63 63 63 63 62 62 62 62 62 62 62 62 63 63 63 62 62 61 61 61 61 61 61 61 61 61 61 61 62 62 62 62 62 62 62 62 62 62 62 62 62 62 62 62 63 63 64 64 64 65 65 65 66 66 66 66 66 66 66 66 66 66 67 68 69 69 70 70 74 75 75 76 77 77 78 78 76 76 77 79 80 81 82 82 86 88 92 94 95 97 100 103 104 106 109 111 113 116 121 124 130 133 136 138 138 136 133 131 126 124 121 120 120 120 118 117 117 115 112 108 104 101 98
61 61 61 61 61 61 61 61 61 61 61 61 61 61 61 61 61 60 60 60 60 59 59 61 61 61 61 61 61 61 61 62 61 61 60 60 61 61 62 62 62 62 62 62 62 62 62 62 62 62 62 62 62 62 62 62 62 62 62 62 62 62 62 63 63 63 63 63 63 63 63 62 62 62 62 62 62 62 62 63 63 63 62 62 61 61 61 61 61 61 61 61 61 61 61 62 62 62 62 62 62 62 62 62 62 62 62 62 62 62 62 64 64 64 64 65 65 65 66 67 67 67 67 67 67 67 67 66 67 67 68 69 70 70 71 76 76 77 78 78 79 80 80 78 79 79 81 82 83 84 84 87 90 93 95 96 98 102 104 105 107 109 112 114 119 124 128 132 135 139 142 142 140 137 135 129 126 123 121 121 121 119 117 116 115 112 108 104 101 98
61 61 61 61 61 61 61 61 61 61 61 61 61 61 61 61 61 61 60 60 59 59 59 61 61 61 61 61 61 61 61 62 61 61 60 60 61 61 62 62 62 62 62 62 62 62 62 62 62 62 62 62 62 62 62 62 62 62 62 62 62 62 62 63 63 63 63 63 63 63 63 62 62 62 62 62 62 62 62 63 63 63 62 62 61 61 61 61 61 61 61 61 61 61 61 62 62 62 62 62 62 62 62 62 62 62 62 62 62 62 62 64 64 64 65 65 65 66 66 67 67 67 67 67 67 67 67 67 67 68 68 69 70 71 71 76 76 77 77 78 79 80 80 81 81 82 83 84 85 86 87 89 91 94 97 98 100 103 106 106 108 110 113 116 122 128 132 137 140 143 145 145 142 138 135 130 127 124 122 121 120 118 116 114 113 110 107 103 100 97
61 61 61 61 61 61 61 61 61 61 61 61 61 61 61 61 61 61 60 60 59 59 59 61 61 61 61 61 61 61 61 62 61 61 60 60 61 61 62 63 63 63 63 63 63 63 63 62 62 62 62 62 62 62 62 62 62 62 62 62 62 62 62 63 63 63 63 63 63 63 63 62 62 62 62 62 62 62 62 63 63 63 62 62 61 61 61 61 61 61 61 61 61 61 61 62 62 62 62 62 62 62 62 62 62 62 62 62 62 62 62 64 64 64 65 65 66 66 66 67 67 67 67 67 67 67 67 67 67 68 69 69 70 71 71 75 75 76 77 78 78 79 79 82 83 84 85 86 87 88 88 90 92 95 98 99 101 104 107 106 108 111 114 118 124 130 135 141 144 146 148 147 142 137 134 131 128 124 122 121 119 117 115 112 111 108 105 102 99 97
62 62 62 62 62 62 62 61 61 61 61 61 61 61 61 61 61 61 61 61 61 61 61 61 61 61 61 61 61 61 61 62 62 62 62 62 62 62 62 62 62 62 62 62 62 62 62 62 62 62 62 62 62 62 62 62 62 62 62 62 62 62 62 62 62 62 62 62 62 62 62 61 61 61 62 62 63 63 63 62 61 61 60 60 61 61 62 61 61 61 61 61 61 61 61 61 61 61 61 61 61 61 61 60 60 60 61 61 62 62 62 64 64 65 65 65 66 66 66 65 65 66 67 67 68 69 69 68 68 69 70 70 71 72 72 74 74 76 77 79 81 82 83 84 84 83 84 85 86 87 88 90 93 96 98 100 102 105 108 108 111 116 121 125 129 134 137 147 147 147 146 143 139 134 132 128 126 123 121 121 119 116 114 111 110 107 104 100 96 94
62 62 62 62 62 62 62 61 61 61 61 61 61 61 61 61 61 61 61 61 61 61 61 61 61 61 61 61 61 61 61 62 62 62 62 62 62 62 62 62 62 62 62 62 62 62 62 62 62 62 62 62 62 62 62 62 62 62 62 62 62 62 62 62 62 62 62 62 62 62 62 61 61 61 62 62 63 63 63 62 61 61 60 60 61 61 62 61 61 61 61 61 61 61 61 61 61 61 61 61 61 61 61 60 60 60 61 61 62 62 62 63 64 64 64 65 65 65 66 65 65 66 67 67 68 69 69 68 68 69 70 71 71 72 72 73 74 75 76 78 79 80 81 82 82 83 83 85 86 88 89 91 93 97 99 100 102 105 108 109 113 118 123 127 132 137 141 149 149 148 147 144 140 136 134 130 127 124 123 122 120 117 115 111 110 107 104 101 98 96
62 62 62 62 62 62 62 61 61 61 61 61 61 61 61 61 61 61 61 61 61 61 61 61 61 61 61 61 61 61 61 62 62 62 62 62 62 62 62 62 62 62 62 62 62 62 62 62 62 62 62 62 62 62 62 62 62 62 62 62 62 62 62 62 62 62 62 62 62 62 62 61 61 62 62 62 62 63 63 62 61 61 60 60 61 61 62 61 61 61 61 61 61 61 61 61 61 61 61 61 61 61 61 61 61 61 61 62 62 62 62 62 63 63 63 64 64 64 65 65 65 66 67 67 68 69 69 68 69 69 70 71 72 72 73 73 74 74 75 76 77 78 78 81 81 82 83 85 87 89 91 92 95 98 100 101 103 106 108 111 115 120 126 131 136 142 146 150 150 149 148 145 141 138 136 131 128 126 124 123 121 118 116 111 110 109 106 104 101 99
61 61 61 61 61 61 61 61 61 61 61 61 61 61 61 61 61 61 61 61 61 61 61 61 61 61 61 61 61 61 61 62 62 62 62 62 62 62 62 62 62 62 62 62 62 62 62 62 62 62 62 62 62 62 62 62 62 62 62 62 62 62 62 62 62 62 62 62 62 62 62 62 62 62 62 62 62 62 62 62 61 61 60 60 61 61 62 61 61 61 61 61 61 61 61 62 62 62 62 62 62 62 62 61 62 62 62 62 62 62 62 62 62 62 63 63 63 64 64 65 65 66 67 67 68 69 69 69 69 70 70 71 72 73 73 74 74 74 75 76 76 77 77 80 80 81 83 86 89 91 93 94 96 99 101 102 104 107 109 111 115 121 127 133 139 145 149 150 150 149 147 144 141 138 137 131 129 126 124 123 122 119 116 112 112 110 109 107 105 103
61 61 61 61 61 61 61 61 61 61 61 61 61 61 61 61 61 61 61 61 61 61 61 61 61 61 61 61 61 61 61 62 62 62 62 62 62 62 62 62 62 62 62 62 62 62 62 62 62 62 62 62 62 62 62 62 62 62 62 62 62 62 62 62 62 62 62 62 62 62 62 62 62 62 62 62 62 62 62 62 61 61 60 60 61 61 62 61 61 61 61 61 61 61 61 62 62 62 62 62 62 62 62 62 62 62 62 62 62 62 62 62 62 62 63 63 63 64 64 65 65 66 67 67 68 69 69 69 69 70 71 72 72 73 73 75 75 75 76 76 77 77 78 80 81 82 84 87 90 93 94 95 98 101 102 103 105 107 110 111 115 121 127 133 139 146 150 149 148 147 145 143 140 138 137 131 129 126 124 124 122 119 117 115 114 113 111 110 108 107
60 60 60 60 60 60 60 61 61 61 61 61 61 61 61 61 61 61 61 61 61 61 61 61 61 61 61 61 61 61 61 62 62 62 62 62 62 62 62 62 62 62 62 62 62 62 62 62 62 62 62 62 62 62 62 62 62 62 62 62 62 62 62 62 62 62 62 62 62 62 62 63 63 62 62 62 62 61 61 62 61 61 60 60 61 61 62 61 61 61 61 61 61 61 61 63 63 63 63 63 63 63 63 63 63 63 63 62 62 62 62 62 63 63 63 64 64 64 65 65 65 66 67 67 68 69 69 69 70 70 71 72 73 73 74 76 76 77 78 79 80 80 81 82 83 84 86 89 92 94 96 97 99 102 103 104 105 108 110 111 116 122 128 133 139 146 150 149 148 146 144 142 140 139 138 133 131 128 126 125 124 121 118 118 117 116 114 112 110 109
60 60 60 60 60 60 60 61 61 61 61 61 61 61 61 61 61 61 61 61 61 61 61 61 61 61 61 61 61 61 61 62 62 62 62 62 62 62 62 62 62 62 62 62 62 62 62 62 62 62 62 62 62 62 62 62 62 62 62 62 62 62 62 62 62 62 62 62 62 62 62 63 63 63 62 62 61 61 61 62 61 61 60 60 61 61 62 61 61 61 61 61 61 61 61 63 63 63 63 63 63 63 63 64 64 64 63 63 62 62 62 63 64 64 64 65 65 65 66 65 65 66 67 67 68 69 69 70 70 71 71 72 73 74 74 77 78 79 80 81 83 84 84 85 86 87 88 90 93 95 97 98 101 103 104 105 106 109 111 113 118 123 129 134 140 146 150 150 149 147 145 143 142 141 140 136 134 131 129 128 127 124 121 121 120 118 116 114 112 110
60 60 60 60 60 60 60 61 61 61 61 61 61 61 61 61 61 61 61 61 61 61 61 61 61 61 61 61 61 61 61 62 62 62 62 62 62 62 62 62 62 62 62 62 62 62 62 62 62 62 62 62 62 62 62 62 62 62 62 62 62 62 62 62 62 62 62 62 62 62 62 63 63 63 62 62 61 61 61 62 61 61 60 60 61 61 62 61 61 61 61 61 61 61 61 63 63 63 63 63 63 63 63 64 64 64 63 63 62 62 62 64 64 65 65 65 66 66 66 65 65 66 67 67 68 69 69 70 70 71 72 72 73 74 74 78 78 80 81 83 85 86 87 87 87 88 89 91 94 96 97 99 101 104 105 105 106 109 111 115 119 125 131 136 141 147 151 152 150 148 146 144 143 142 142 139 136 133 132 131 129 126 124 123 122 120 118 115 113 111
59 59 60 60 61 61 61 61 61 61 61 61 61 61 61 61 61 61 61 61 61 61 61 61 61 61 61 61 61 61 61 62 62 62 62 62 62 62 62 62 62 62 62 62 62 62 62 62 62 62 62 62 62 62 62 62 62 62 62 62 62 62 62 62 62 62 62 62 62 62 62 62 62 62 62 62 62 62 62 60 60 60 61 61 62 62 62 61 61 61 61 61 61 61 61 62 62 62 62 62 62 62 62 62 62 62 62 62 62 62 62 64 64 64 65 65 66 66 66 65 65 65 66 66 67 67 67 69 70 70 71 71 72 72 73 74 76 79 80 81 83 86 89 90 91 91 91 91 92 96 99 100 102 106 108 110 112 115 118 118 121 127 133 140 145 149 151 151 150 149 147 145 143 142 141 137 137 135 133 131 129 128 127 122 123 123 122 120 117 114
59 59 60 60 61 61 61 61 61 61 61 61 61 61 61 61 61 61 61 61 61 61 61 61 61 61 61 61 61 61 61 62 62 62 62 62 62 62 62 62 62 62 62 62 62 62 62 62 62 62 62 62 62 62 62 62 62 62 62 62 62 62 62 62 62 62 62 62 62 62 62 62 62 62 62 62 62 62 62 60 60 60 61 61 62 62 62 61 61 61 61 61 61 61 61 62 62 62 62 62 62 62 62 62 62 62 62 62 62 62 62 64 64 64 65 65 66 66 66 65 65 65 66 66 67 67 67 69 70 70 71 71 72 73 73 74 76 78 79 80 83 86 89 90 92 93 94 93 95 97 100 101 104 107 109 110 113 116 119 122 125 130 137 143 149 152 154 152 151 149 147 145 143 141 140 137 136 134 132 130 128 127 126 123 123 123 122 120 117 115
59 59 60 60 61 61 61 61 61 61 61 61 61 61 61 61 61 61 61 61 61 61 61 61 61 61 61 61 61 61 61 62 62 62 62 62 62 62 62 62 62 62 62 62 62 62 62 62 62 62 62 62 62 62 62 62 62 62 62 62 62 62 62 62 62 62 62 62 62 62 62 62 62 62 62 62 62 62 62 60 60 60 61 61 62 62 62 61 61 61 61 61 61 61 61 62 62 62 62 62 62 62 62 62 62 62 62 62 62 62 62 64 64 64 65 65 66 66 66 65 65 65 66 66 67 67 67 69 69 70 71 72 73 73 74 74 76 78 79 80 82 86 89 90 93 96 98 98 98 100 102 103 106 109 111 112 114 117 119 124 127 133 139 145 150 153 154 152 151 149 147 144 141 140 139 135 135 133 131 129 127 126 125 123 123 122 121 119 116 114
59 59 60 60 61 61 61 61 61 61 61 61 61 61 61 61 61 61 61 61 61 61 61 62 62 62 62 62 62 62 62 62 62 62 62 62 62 62 62 62 62 62 62 62 62 62 62 61 61 61 61 61 61 61 61 61 61 61 61 61 61 61 61 62 62 62 62 62 62 62 62 62 62 62 62 62 62 62 62 60 60 60 61 61 62 62 62 61 61 61 61 61 61 61 61 62 62 62 62 62 62 62 62 63 63 63 63 63 63 63 63 64 64 64 65 65 66 66 66 65 65 65 66 66 67 67 67 69 69 70 71 72 73 74 75 74 76 78 79 80 82 86 89 91 95 99 101 102 102 104 105 107 109 112 113 114 116 118 121 124 128 133 140 145 149 151 152 151 150 148 146 143 140 138 137 134 133 132 130 128 126 125 124 123 122 120 118 116 114 112
59 59 60 60 61 61 61 61 61 61 61 61 61 61 61 61 61 61 61 61 61 61 61 62 62 62 62 62 62 62 62 62 62 62 62 62 62 62 62 62 62 62 62 62 62 62 62 61 61 61 61 61 61 61 61 61 61 61 61 61 61 61 61 62 62 62 62 62 62 62 62 62 62 62 62 62 62 62 62 60 60 60 61 61 62 62 62 61 61 61 61 61 61 61 61 62 62 62 62 62 62 62 62 63 63 63 63 63 63 63 63 64 64 64 65 65 66 66 66 65 65 65 66 66 67 67 67 69 69 70 72 73 74 75 76 75 77 79 80 81 83 87 89 93 96 101 104 105 106 107 109 110 113 115 116 116 117 120 122 126 130 135 142 147 150 151 152 150 149 147 145 142 140 138 137 134 133 132 130 128 126 124 123 122 120 118 116 113 111 109
59 59 60 60 61 61 61 61 61 61 61 61 61 61 61 61 61 61 61 61 61 61 61 63 63 63 63 63 63 63 63 62 62 62 62 62 62 62 62 62 62 62 62 62 62 62 62 60 60 60 60 60 60 60 60 60 60 60 60 60 60 60 60 62 62 62 62 62 62 62 62 62 62 62 62 62 62 62 62 60 60 60 61 61 62 62 62 61 61 61 61 61 61 61 61 62 62 62 62 62 62 62 62 64 64 64 64 64 64 64 64 64 64 64 65 65 66 66 66 65 65 65 66 66 67 67 67 69 69 70 72 73 75 76 77 76 78 80 81 82 85 88 91 94 97 101 104 106 107 110 112 114 116 118 119 118 119 121 123 129 133 139 145 150 152 153 153 148 147 146 144 142 140 139 138 134 133 132 130 128 126 125 124 122 120 118 115 112 110 109
59 59 60 60 61 61 61 61 61 61 61 61 61 61 61 61 61 61 61 61 61 61 61 63 63 63 63 63 63 63 63 62 62 62 62 62 62 62 62 62 62 62 62 62 62 62 62 60 60 60 60 60 60 60 60 60 60 60 60 60 60 60 60 62 62 62 62 62 62 62 62 62 62 62 62 62 62 62 62 60 60 60 61 61 62 62 62 61 61 61 61 61 61 61 61 62 62 62 62 62 62 62 62 64 64 64 64 64 64 64 64 64 64 64 65 65 66 66 66 65 65 65 66 66 67 67 67 69 69 70 72 74 75 77 77 78 80 82 83 84 86 90 92 96 98 101 103 105 108 112 115 116 118 120 121 120 120 122 124 129 133 140 146 150 152 152 152 146 145 144 143 142 140 139 139 135 134 133 131 129 127 125 124 124 122 119 116 113 111 110
59 59 60 60 61 61 61 61 61 61 61 61 61 61 61 61 61 61 61 61 61 61 61 63 63 63 63 63 63 63 63 62 62 62 62 62 62 62 62 62 62 62 62 62 62 62 62 60 60 60 60 60 60 60 60 60 60 60 60 60 60 60 60 62 62 62 62 62 62 62 62 62 62 62 62 62 62 62 62 60 60 60 61 61 62 62 62 61 61 61 61 61 61 61 61 62 62 62 62 62 62 62 62 64 64 64 64 64 64 64 64 64 64 64 65 65 66 66 66 65 65 65 66 66 67 67 67 68 69 70 72 74 76 77 78 79 81 83 84 85 87 91 93 97 98 101 102 104 108 113 117 118 120 121 122 121 121 123 125 127 131 137 144 148 150 149 148 144 144 143 142 141 141 140 140 135 135 133 131 129 127 126 125 126 124 121 117 114 112 111
61 61 61 61 61 61 61 61 61 61 61 61 61 61 61 62 62 62 62 62 62 62 62 61 61 61 61 61 61 61 61 61 61 61 61 61 61 61 61 61 61 61 61 61 61 61 61 62 62 62 61 61 60 60 60 60 60 60 61 61 62 62 62 62 62 62 62 62 62 62 62 62 62 62 62 62 62 62 62 59 59 59 60 60 61 61 61 61 61 61 61 61 61 61 61 61 61 61 62 62 63 63 63 62 62 62 63 63 64 64 64 64 64 64 64 64 64 64 64 66 66 66 67 67 68 68 68 68 69 70 71 73 76 78 79 79 80 83 85 88 90 91 91 96 98 100 102 105 109 114 118 118 118 118 119 120 121 123 124 128 132 137 142 146 148 148 148 146 145 143 141 139 137 135 135 133 133 132 131 129 128 127 127 126 125 123 120 118 117 116
61 61 61 61 61 61 61 61 61 61 61 61 61 61 61 62 62 62 62 62 62 62 62 61 61 61 61 61 61 61 61 61 61 61 61 61 61 61 61 61 61 61 61 61 61 61 61 62 62 62 61 61 60 60 60 60 60 60 61 61 62 62 62 62 62 62 62 62 62 62 62 62 62 62 62 62 62 62 62 59 59 59 60 60 61 61 61 61 61 61 61 61 61 61 61 61 61 61 62 62 63 63 63 62 62 62 63 63 64 64 64 64 64 64 64 64 64 64 64 66 66 66 67 67 68 68 68 70 70 71 72 74 77 79 80 79 81 83 86 89 90 91 92 94 96 99 101 103 107 112 116 118 118 118 118 119 120 122 123 128 131 136 142 145 147 147 147 145 144 143 141 139 137 135 134 133 132 132 131 130 129 128 128 126 124 122 120 118 116 116
61 61 61 61 61 61 61 61 61 61 61 61 61 61 61 62 62 62 62 62 62 62 62 61 61 61 61 61 61 61 61 61 61 61 61 61 61 61 61 61 61 61 61 61 61 61 61 62 62 62 61 61 60 60 60 60 60 60 61 61 62 62 62 62 62 62 62 62 62 62 62 62 62 62 62 62 62 62 62 59 59 59 60 60 61 61 61 61 61 61 61 61 61 61 61 61 61 61 62 62 63 63 63 62 62 62 63 63 64 64 64 64 64 64 64 64 64 64 64 66 66 66 67 67 68 68 68 71 71 72 73 75 77 79 81 80 82 84 87 90 91 92 93 93 95 97 99 101 105 110 114 117 117 117 117 118 119 120 121 128 131 135 140 144 146 146 146 144 143 142 140 138 136 135 134 132 132 132 131 130 130 129 129 125 124 121 119 117 115 115
61 61 61 61 61 61 61 61 61 61 61 61 61 61 61 61 61 61 61 61 61 61 61 61 61 61 61 61 61 61 61 61 61 61 61 61 61 61 61 61 61 61 61 61 61 61 61 62 62 62 61 61 60 60 60 60 60 60 61 61 62 62 62 62 62 62 62 62 62 62 62 61 61 61 61 61 61 61 61 59 59 59 60 60 61 61 61 61 61 61 61 61 61 61 61 61 61 61 62 62 63 63 63 62 62 62 63 63 64 64 64 64 64 64 64 64 64 64 64 66 66 66 67 67 68 68 68 70 70 71 72 74 76 78 79 81 83 85 88 90 92 93 94 94 95 98 99 101 105 109 113 116 116 116 116 117 118 119 120 127 130 134 138 141 144 144 144 143 142 141 139 138 136 135 134 132 132 131 131 130 130 129 129 124 122 120 118 116 114 114
61 61 61 61 61 61 61 61 61 61 61 61 61 61 61 61 61 61 61 61 61 61 61 61 61 61 61 61 61 61 61 61 61 61 61 61 61 61 61 61 61 61 61 61 61 61 61 62 62 62 61 61 60 60 60 60 60 60 61 61 62 62 62 62 62 62 62 62 62 62 62 61 61 61 61 61 61 61 61 59 59 59 60 60 61 61 61 61 61 61 61 61 61 61 61 61 61 61 62 62 63 63 63 62 62 62 63 63 64 64 64 64 64 64 64 64 64 64 64 66 66 66 67 67 68 68 68 69 69 70 70 72 74 76 77 81 83 85 88 90 92 93 94 95 96 98 100 101 105 109 113 114 114 115 115 116 118 120 121 127 129 132 136 139 141 142 143 141 141 140 138 137 135 134 134 132 131 131 130 129 129 128 128 122 121 119 117 115 113 112
61 61 61 61 61 61 61 61 61 61 61 61 61 61 61 60 60 60 60 60 60 60 60 61 61 61 61 61 61 61 61 61 61 61 61 61 61 61 61 61 61 61 61 61 61 61 61 62 62 62 61 61 60 60 60 60 60 60 61 61 62 62 62 62 62 62 62 62 62 62 62 60 60 60 60 60 60 60 60 59 59 59 60 60 61 61 61 61 61 61 61 61 61 61 61 61 61 61 62 62 63 63 63 62 62 62 63 63 64 64 64 64 64 64 64 64 64 64 64 66 66 66 67 67 68 68 68 69 69 69 70 71 73 74 75 80 82 84 87 90 91 92 93 95 97 98 100 101 104 109 112 113 113 114 115 117 120 122 123 126 128 131 134 137 139 141 141 140 140 139 137 136 135 134 133 132 131 130 129 128 126 126 125 121 120 118 115 113 112 111
61 61 61 61 61 61 61 61 61 61 61 61 61 61 61 60 60 60 60 60 60 60 60 61 61 61 61 61 61 61 61 61 61 61 61 61 61 61 61 61 61 61 61 61 61 61 61 62 62 62 61 61 60 60 60 60 60 60 61 61 62 62 62 62 62 62 62 62 62 62 62 60 60 60 60 60 60 60 60 59 59 59 60 60 61 61 61 61 61 61 61 61 61 61 61 61 61 61 62 62 63 63 63 62 62 62 63 63 64 64 64 64 64 64 64 64 64 64 64 66 66 66 67 67 68 68 68 70 70 70 70 72 73 75 76 79 81 83 86 89 90 91 92 94 95 97 98 99 102 107 110 111 112 113 115 118 121 124 126 126 127 130 132 135 138 139 140 139 139 138 137 136 135 134 133 132 131 130 128 126 124 123 122 120 119 117 115 113 111 110
61 61 61 61 61 61 61 61 61 61 61 61 61 61 61 60 60 60 60 60 60 60 60 61 61 61 61 61 61 61 61 61 61 61 61 61 61 61 61 61 61 61 61 61 61 61 61 62 62 62 61 61 60 60 60 60 60 60 61 61 62 62 62 62 62 62 62 62 62 62 62 60 60 60 60 60 60 60 60 59 59 59 60 60 61 61 61 61 61 61 61 61 61 61 61 61 61 61 62 62 63 63 63 62 62 62 63 63 64 64 64 64 64 64 64 64 64 64 64 66 66 66 67 67 68 68 68 71 71 71 72 73 74 76 77 79 80 83 85 88 90 91 91 92 94 96 97 98 101 105 109 110 111 113 116 119 123 126 128 126 127 129 132 134 137 139 140 139 138 137 136 135 134 134 133 132 131 129 127 125 122 121 120 120 119 116 114 112 111 110
60 60 60 60 60 60 60 60 60 60 60 60 60 60 60 61 61 61 61 61 61 61 61 62 62 62 62 62 62 62 62 61 61 61 61 61 61 61 61 61 61 61 61 61 61 61 61 61 61 61 61 61 61 61 61 60 60 60 60 60 60 60 60 61 61 61 61 61 61 61 61 62 61 60 59 59 59 59 60 61 61 61 61 61 61 61 61 61 61 61 61 61 61 61 61 62 62 62 62 62 62 62 62 62 62 62 63 63 64 64 64 64 64 64 65 65 66 66 66 66 66 67 67 67 67 68 68 73 73 73 73 73 73 73 73 81 81 81 82 83 85 86 87 92 94 94 95 96 99 105 109 109 110 113 115 119 121 124 125 127 126 128 131 136 140 141 141 143 140 136 134 134 134 133 131 131 130 128 126 124 122 120 119 116 114 112 110 109 109 110
60 60 60 60 60 60 60 60 60 60 60 60 60 60 60 61 61 61 61 61 61 61 61 62 62 62 62 62 62 62 62 61 61 61 61 61 61 61 61 61 61 61 61 61 61 61 61 61 61 61 61 61 61 61 61 60 60 60 60 60 60 60 60 61 61 61 61 61 61 61 61 62 61 60 59 59 59 59 60 61 61 61 61 61 61 61 61 61 61 61 61 61 61 61 61 62 62 62 62 62 62 62 62 62 62 62 63 63 64 64 64 64 64 64 65 65 66 66 66 66 66 67 67 67 68 68 68 72 72 73 73 73 73 74 74 79 79 80 81 82 84 86 87 91 93 95 96 97 100 104 108 110 111 113 116 119 121 123 125 126 126 128 132 137 141 143 143 144 141 138 136 135 135 133 132 131 130 129 126 123 121 119 118 115 114 111 109 107 107 107
60 60 60 60 60 60 60 60 60 60 60 60 60 60 60 61 61 61 61 61 61 61 61 62 62 62 62 62 62 62 62 61 61 61 61 61 61 61 61 61 61 61 61 61 61 61 61 61 61 61 61 61 61 61 61 60 60 60 60 60 60 60 60 61 61 61 61 61 61 61 61 62 61 60 59 59 59 59 60 61 61 61 61 61 61 61 61 61 61 61 61 61 61 61 61 62 62 62 62 62 62 62 62 62 62 62 63 63 64 64 64 64 64 64 65 65 66 66 66 66 66 67 67 68 68 68 69 72 72 72 73 73 74 74 75 78 78 78 80 81 83 85 86 89 92 95 97 99 101 104 107 110 111 113 116 119 121 123 124 125 125 127 132 138 143 145 145 146 143 140 138 137 136 134 133 132 131 129 126 123 120 117 116 114 113 110 107 105 103 102
60 60 60 60 60 60 60 60 60 60 60 60 60 60 60 61 61 61 61 61 61 61 61 61 61 61 61 61 61 61 61 61 61 61 61 61 61 61 61 61 61 61 61 61 61 61 61 61 61 61 61 61 61 61 61 60 60 60 60 60 60 60 60 61 61 61 61 61 61 61 61 62 61 60 59 59 59 59 60 61 61 61 61 61 61 61 61 61 61 61 61 61 61 61 61 62 62 62 62 62 62 62 62 62 62 62 63 63 64 64 64 64 64 64 65 65 66 66 66 66 66 67 67 68 69 69 70 71 72 73 74 75 75 76 77 78 78 78 79 81 83 85 86 88 91 95 98 100 102 104 106 111 112 114 116 119 121 123 124 125 125 128 133 140 145 147 148 147 145 142 140 139 138 135 133 132 131 128 125 122 118 116 115 113 111 109 106 102 100 97
60 60 60 60 60 60 60 60 60 60 60 60 60 60 60 61 61 61 61 61 61 61 61 61 61 61 61 61 61 61 61 61 61 61 61 61 61 61 61 61 61 61 61 61 61 61 61 61 61 61 61 61 61 61 61 60 60 60 60 60 60 60 60 61 61 61 61 61 61 61 61 62 61 60 59 59 59 59 60 61 61 61 61 61 61 61 61 61 61 61 61 61 61 61 61 62 62 62 62 62 62 62 62 62 62 62 63 63 64 64 64 64 64 64 65 65 66 66 66 66 66 67 68 69 70 70 71 72 73 74 75 76 78 79 79 80 80 80 81 82 84 85 86 87 91 95 98 100 102 105 107 112 113 115 117 119 122 123 124 125 126 129 134 141 147 149 150 148 146 143 141 140 138 135 133 131 130 128 124 121 118 115 114 112 111 109 105 102 98 95
60 60 60 60 60 60 60 60 60 60 60 60 60 60 60 61 61 61 61 61 61 61 61 60 60 60 60 60 60 60 60 61 61 61 61 61 61 61 61 61 61 61 61 61 61 61 61 61 61 61 61 61 61 61 61 60 60 60 60 60 60 60 60 61 61 61 61 61 61 61 61 62 61 60 59 59 59 59 60 61 61 61 61 61 61 61 61 61 61 61 61 61 61 61 61 62 62 62 62 62 62 62 62 62 62 62 63 63 64 64 64 64 64 64 65 65 66 66 66 66 66 67 68 69 70 71 71 73 74 75 77 79 81 82 83 85 84 84 84 84 85 86 87 88 91 94 97 99 102 106 108 113 114 116 118 120 122 123 124 127 128 130 135 142 147 150 151 148 146 144 142 141 138 135 132 130 129 126 123 120 117 115 114 112 111 109 106 102 98 95
60 60 60 60 60 60 60 60 60 60 60 60 60 60 60 61 61 61 61 61 61 61 61 60 60 60 60 60 60 60 60 61 61 61 61 61 61 61 61 61 61 61 61 61 61 61 61 61 61 61 61 61 61 61 61 60 60 60 60 60 60 60 60 61 61 61 61 61 61 61 61 62 61 60 59 59 59 59 60 61 61 61 61 61 61 61 61 61 61 61 61 61 61 61 61 62 62 62 62 62 62 62 62 62 62 62 63 63 64 64 64 64 64 64 65 65 66 66 66 66 66 67 68 70 71 72 72 74 75 77 79 81 83 85 86 89 89 88 87 87 87 87 87 89 91 93 95 98 101 106 110 114 115 116 118 120 122 123 124 129 129 131 136 143 148 150 150 148 146 144 142 141 138 134 130 128 127 125 123 120 117 116 115 112 111 110 107 104 100 96
60 60 60 60 60 60 60 60 60 60 60 60 60 60 60 61 61 61 61 61 61 61 61 60 60 60 60 60 60 60 60 61 61 61 61 61 61 61 61 61 61 61 61 61 61 61 61 61 61 61 61 61 61 61 61 60 60 60 60 60 60 60 60 61 61 61 61 61 61 61 61 62 61 60 59 59 59 59 60 61 61 61 61 61 61 61 61 61 61 61 61 61 61 61 61 62 62 62 62 62 62 62 62 62 62 62 63 63 64 64 64 64 64 64 65 65 66 66 66 66 66 67 68 70 71 72 73 75 76 78 80 82 85 86 87 93 92 90 89 88 88 88 88 90 91 93 94 97 101 107 111 114 115 116 118 120 122 123 124 130 130 132 137 143 148 150 150 147 146 144 142 141 138 133 129 127 126 124 122 120 118 116 115 112 112 111 108 105 101 97
60 60 60 60 60 60 60 63 62 61 61 60 59 58 58 60 60 60 60 60 60 60 60 60 60 60 60 60 60 60 60 60 60 60 60 60 60 60 60 61 61 61 61 61 61 61 61 61 61 61 61 61 61 61 61 60 60 60 60 60 60 60 60 61 61 61 60 60 59 59 59 59 59 59 60 60 61 61 61 60 60 60 60 60 60 60 60 61 61 61 61 61 61 61 61 62 62 62 62 62 62 62 62 64 63 63 62 62 63 63 64 65 64 64 64 64 65 66 67 67 67 68 69 70 71 72 73 74 76 79 80 82 84 88 91 96 96 95 95 94 94 94 94 94 93 93 94 97 102 107 111 114 115 117 118 118 120 123 125 128 132 137 143 147 149 149 148 149 146 143 139 137 134 130 127 126 125 123 121 119 117 115 114 111 110 108 105 103 100 98
60 60 60 60 60 60 60 62 62 61 60 60 59 58 58 60 60 60 60 60 60 60 60 60 60 60 60 60 60 60 60 60 60 60 60 60 60 60 60 61 61 61 61 61 61 61 61 61 61 61 61 61 61 61 61 60 60 60 60 60 60 60 60 61 61 61 60 60 59 59 59 59 59 59 60 60 61 61 61 60 60 60 60 60 60 60 60 61 61 61 61 61 61 61 61 62 62 62 62 62 62 62 62 64 63 63 62 62 63 63 64 65 65 65 64 65 66 67 67 68 68 69 70 71 72 73 74 74 77 79 81 83 85 89 92 97 97 97 96 96 95 95 95 96 95 95 96 99 104 109 111 115 116 118 119 119 121 124 127 131 134 139 145 148 150 149 149 149 146 142 139 136 134 130 127 126 125 123 121 119 116 115 114 110 109 107 105 102 100 98
60 60 60 60 60 60 60 62 62 61 60 60 59 58 58 60 60 60 60 60 60 60 60 60 60 60 60 60 60 60 60 60 60 60 60 60 60 60 60 61 61 61 61 61 61 61 61 61 61 61 61 61 61 61 61 60 60 60 60 60 60 60 60 61 61 61 60 60 59 59 59 59 59 59 60 60 61 61 61 60 60 60 60 60 60 60 60 61 61 61 61 61 61 61 61 62 62 62 62 62 62 62 62 64 63 63 62 62 63 63 64 66 66 66 65 66 67 68 68 69 69 70 72 73 74 75 76 75 77 80 82 84 87 91 95 99 99 99 99 98 98 98 98 99 98 98 99 102 106 110 112 116 118 120 121 122 123 127 130 135 138 143 147 150 151 150 150 147 144 140 138 136 133 129 127 126 125 123 120 118 116 114 113 109 108 107 104 102 100 98
60 60 60 60 60 60 60 61 61 61 60 60 59 59 59 60 60 60 60 60 60 60 60 60 60 60 60 60 60 60 60 60 60 60 60 60 60 60 60 61 61 61 61 61 61 61 61 61 61 61 61 61 61 61 61 60 60 60 60 60 60 60 60 61 61 61 60 60 59 59 59 59 59 59 60 60 61 61 61 60 60 60 60 60 60 60 60 61 61 61 61 61 61 61 61 62 62 62 62 62 62 62 62 64 63 63 62 62 63 63 64 67 67 66 66 67 67 68 69 70 70 72 73 74 76 77 78 75 78 81 83 85 88 93 96 101 101 101 101 101 101 101 101 102 101 101 102 104 107 110 112 118 120 122 123 124 126 129 132 138 141 145 149 151 151 150 149 145 142 139 136 135 133 129 127 125 124 122 120 117 114 112 111 108 107 105 103 101 99 98
60 60 60 60 60 60 60 61 61 60 60 60 60 59 59 60 60 60 60 60 60 60 60 60 60 60 60 60 60 60 60 60 60 60 60 60 60 60 60 61 61 61 61 61 61 61 61 61 61 61 61 61 61 61 61 60 60 60 60 60 60 60 60 61 61 61 60 60 59 59 59 59 59 59 60 60 61 61 61 60 60 60 60 60 60 60 60 61 61 61 61 61 61 61 61 62 62 62 62 62 62 62 62 64 63 63 62 62 63 63 64 67 67 66 66 67 67 68 69 70 71 72 74 75 77 78 79 76 79 82 84 85 88 93 96 100 101 102 103 104 105 105 106 105 105 104 105 106 108 110 111 119 121 123 125 126 128 132 134 141 144 147 150 151 151 149 147 142 140 137 135 134 132 129 126 125 124 122 119 116 113 111 110 106 106 104 103 101 99 97
60 60 60 60 60 60 60 60 60 60 60 60 60 60 60 60 60 60 60 60 60 60 60 60 60 60 60 60 60 60 60 60 60 60 60 60 60 60 60 61 61 61 61 61 61 61 61 61 61 61 61 61 61 61 61 60 60 60 60 60 60 60 60 61 61 61 60 60 59 59 59 59 59 59 60 60 61 61 61 60 60 60 60 60 60 60 60 61 61 61 61 61 61 61 61 62 62 62 62 62 62 62 62 64 63 63 62 62 63 63 64 66 66 66 65 66 67 68 68 70 70 72 74 76 77 79 80 78 80 82 84 85 87 91 94 99 100 101 103 106 108 109 110 109 109 109 109 110 111 112 112 119 121 124 125 127 129 133 136 142 144 147 150 150 148 146 144 140 138 135 134 133 131 129 126 125 124 121 118 115 112 110 109 105 105 103 102 100 98 97
60 60 60 60 60 60 60 60 60 60 60 60 60 60 60 60 60 60 60 60 60 60 60 60 60 60 60 60 60 60 60 60 60 60 60 60 60 60 60 61 61 61 61 61 61 61 61 61 61 61 61 61 61 61 61 60 60 60 60 60 60 60 60 61 61 61 60 60 59 59 59 59 59 59 60 60 61 61 61 60 60 60 60 60 60 60 60 61 61 61 61 61 61 61 61 62 62 62 62 62 62 62 62 64 63 63 62 62 63 63 64 65 65 65 64 65 66 67 67 69 70 71 73 75 77 79 80 79 80 82 83 84 86 89 92 96 98 100 103 107 110 112 114 114 114 114 114 114 114 115 115 119 121 124 126 127 130 133 137 142 144 147 148 148 146 143 141 138 136 134 133 132 131 129 126 125 123 121 118 115 111 109 108 104 104 103 101 99 98 97
60 60 60 60 60 60 60 60 60 60 60 60 60 60 60 60 60 60 60 60 60 60 60 60 60 60 60 60 60 60 60 60 60 60 60 60 60 60 60 61 61 61 61 61 61 61 61 61 61 61 61 61 61 61 61 60 60 60 60 60 60 60 60 61 61 61 60 60 59 59 59 59 59 59 60 60 61 61 61 60 60 60 60 60 60 60 60 61 61 61 61 61 61 61 61 62 62 62 62 62 62 62 62 64 63 63 62 62 63 63 64 65 64 64 64 64 65 66 67 68 69 71 73 75 77 79 80 79 81 83 83 83 85 88 90 95 96 99 103 107 111 114 116 118 118 118 117 117 117 117 117 119 121 124 125 127 130 134 137 142 144 146 147 147 144 141 139 137 135 133 132 132 131 128 126 125 123 121 118 114 111 109 107 104 103 102 101 99 98 97
59 59 59 59 59 59 59 60 60 60 60 60 60 60 60 60 60 60 60 60 60 60 60 60 60 60 60 60 60 60 60 60 60 60 60 60 60 60 60 62 62 62 62 62 62 62 62 62 62 62 62 62 62 62 62 61 61 61 61 61 61 61 61 63 62 62 61 61 60 60 60 60 60 60 60 60 60 60 60 61 61 61 61 61 61 61 61 62 62 62 62 62 62 62 62 61 61 61 61 61 61 61 61 63 63 63 64 64 65 65 65 63 63 64 65 66 68 69 70 69 69 71 72 74 75 76 77 79 79 81 83 85 87 88 89 97 99 101 102 105 109 115 120 121 121 120 120 120 122 124 125 126 126 125 126 128 132 136 138 143 144 144 144 143 141 139 138 136 134 132 132 132 131 128 125 123 121 118 115 112 109 108 107 106 104 102 101 101 99 96
59 59 59 59 59 59 59 60 60 60 60 60 60 60 60 60 60 60 60 60 60 60 60 60 60 60 60 60 60 60 60 60 60 60 60 60 60 60 60 62 62 62 62 62 62 62 62 61 61 61 61 61 61 61 61 61 61 61 61 61 61 61 61 62 62 62 61 61 60 60 60 60 60 60 60 60 60 60 60 61 61 61 61 61 61 61 61 62 62 62 62 62 62 62 62 61 61 61 61 61 61 61 61 63 63 63 64 64 65 65 65 64 64 64 65 66 68 69 70 69 70 71 73 74 76 77 78 79 80 82 84 86 88 89 90 95 97 99 101 104 109 115 119 123 123 122 122 123 124 126 127 129 128 128 128 130 133 136 137 142 143 143 143 142 140 138 136 135 134 132 132 131 130 127 125 122 120 117 114 111 109 107 106 105 103 101 101 100 98 95
59 59 59 59 59 59 59 60 60 60 60 60 60 60 60 60 60 60 60 60 60 60 60 60 60 60 60 60 60 60 60 60 60 60 60 60 60 60 60 62 62 62 62 62 62 62 62 60 60 60 60 60 60 60 60 61 61 61 61 61 61 61 61 61 61 61 61 60 60 60 60 60 60 60 60 60 60 60 60 61 61 61 61 61 61 61 61 62 62 62 62 62 62 62 62 61 61 61 61 61 61 61 61 63 63 63 64 64 65 65 65 64 64 64 65 66 67 69 70 70 71 72 74 75 77 78 79 81 81 83 85 87 89 90 91 92 95 98 101 104 108 114 119 126 126 126 126 127 128 130 131 133 132 132 131 132 134 136 137 141 142 142 142 141 138 136 135 134 133 131 130 130 129 126 123 119 118 115 112 110 107 106 106 105 103 101 100 100 98 94
59 59 59 59 59 59 59 60 60 60 60 60 60 60 60 60 60 60 60 60 60 60 60 60 60 60 60 60 60 60 60 60 60 60 60 60 60 60 60 61 61 61 61 61 61 61 61 59 59 59 59 59 59 59 59 60 60 60 60 60 60 60 60 60 60 60 60 60 60 60 60 61 61 61 61 61 61 61 61 61 61 61 61 61 61 61 61 62 62 62 62 62 62 62 62 62 62 62 62 62 62 62 62 63 63 63 64 64 65 65 65 64 64 64 65 66 67 68 69 71 72 73 74 76 77 79 79 82 83 84 86 88 90 91 92 92 95 98 102 105 109 115 119 127 128 128 130 132 133 135 136 138 137 136 135 135 135 136 137 142 142 142 142 140 138 135 134 132 130 129 128 128 127 124 121 117 115 113 111 108 107 106 105 104 102 101 100 99 97 94
59 59 59 59 59 59 59 60 60 60 60 60 60 60 60 60 60 60 60 60 60 60 60 60 60 60 60 60 60 60 60 60 60 60 60 60 60 60 60 61 61 61 61 61 61 61 61 59 59 59 59 59 59 59 59 60 60 60 60 60 60 60 60 60 60 60 60 60 60 60 60 61 61 61 61 61 61 61 61 61 61 61 61 61 61 61 61 62 62 62 62 62 62 62 62 62 62 62 62 62 62 62 62 63 63 63 64 64 65 65 65 65 65 65 65 66 67 68 69 71 72 73 74 76 77 79 79 82 83 84 86 88 90 92 93 93 96 100 104 107 111 116 119 126 127 130 132 135 138 139 140 143 142 141 140 139 138 138 138 142 142 142 142 140 137 135 133 129 128 126 126 125 124 121 119 115 114 112 110 108 106 106 106 105 103 101 100 100 98 95
59 59 59 59 59 59 59 60 60 60 60 60 60 60 60 60 60 60 60 60 60 60 60 60 60 60 60 60 60 60 60 60 60 60 60 60 60 60 60 60 60 60 60 60 60 60 60 59 59 59 59 59 59 59 59 59 59 59 59 59 59 59 59 59 59 59 59 60 60 60 60 62 62 62 62 62 62 62 62 61 61 61 61 61 61 61 61 62 62 62 62 62 62 62 62 63 63 63 63 63 63 63 63 63 63 63 64 64 65 65 65 66 65 65 65 65 66 67 68 70 71 72 74 75 77 78 79 82 83 84 86 88 90 91 92 95 98 102 105 108 111 115 118 123 125 129 133 138 141 143 144 146 145 145 143 142 141 140 140 141 141 141 140 138 135 132 131 126 124 123 122 122 121 118 115 114 113 111 109 108 107 107 107 106 104 102 101 101 99 96
59 59 59 59 59 59 59 60 60 60 60 60 60 60 60 60 60 60 60 60 60 60 60 60 60 60 60 60 60 60 60 60 60 60 60 60 60 60 60 60 60 60 60 60 60 60 60 60 60 60 60 60 60 60 60 59 59 59 59 59 59 59 59 58 58 58 59 59 60 60 60 62 62 62 62 62 62 62 62 61 61 61 61 61 61 61 61 62 62 62 62 62 62 62 62 63 63 63 63 63 63 63 63 63 63 63 64 64 65 65 65 66 66 65 65 65 66 67 68 69 70 71 73 74 76 77 78 81 82 83 85 87 89 91 92 95 98 102 105 107 109 112 114 119 122 127 133 138 143 146 147 148 147 147 146 145 144 142 142 138 138 138 137 135 132 129 127 123 121 120 119 119 118 115 112 113 112 111 109 108 108 108 108 107 105 103 102 102 100 97
59 59 59 59 59 59 59 60 60 60 60 60 60 60 60 60 60 60 60 60 60 60 60 60 60 60 60 60 60 60 60 60 60 60 60 60 60 60 60 60 60 60 60 60 60 60 60 60 60 60 60 60 60 60 60 59 59 59 59 59 59 59 59 58 58 58 59 59 60 60 60 62 62 62 62 62 62 62 62 61 61 61 61 61 61 61 61 62 62 62 62 62 62 62 62 63 63 63 63 63 63 63 63 63 63 63 64 64 65 65 65 66 66 65 65 65 66 67 67 69 69 70 72 74 75 76 77 81 81 83 85 87 89 90 91 95 98 101 104 105 107 110 112 116 120 126 132 139 144 147 148 148 148 148 148 147 145 144 143 136 136 136 134 132 129 126 124 121 119 118 117 117 116 113 110 113 112 111 110 109 108 108 109 108 106 104 103 103 101 98
59 59 59 59 59 59 59 59 59 59 59 59 59 59 59 60 60 60 60 60 60 60 60 60 60 60 60 60 60 60 60 59 59 59 58 58 57 57 57 60 60 60 60 60 60 60 60 60 60 60 60 60 60 60 60 60 60 60 60 60 60 60 60 59 59 59 59 59 59 59 59 61 61 61 61 61 61 61 61 62 62 62 62 62 62 62 62 61 61 61 62 62 63 63 63 64 64 64 64 64 64 64 64 65 65 65 65 65 65 65 65 66 66 66 67 67 68 68 68 70 71 71 72 72 73 74 74 75 76 78 81 83 86 88 89 93 95 98 100 101 104 108 111 114 117 122 128 134 141 149 154 152 152 150 148 145 142 139 138 137 136 135 133 130 127 125 123 118 117 116 115 113 111 110 110 108 107 107 106 107 107 108 109 110 109 108 106 103 100 97
59 59 59 59 59 59 59 59 59 59 59 59 59 59 59 60 60 60 60 60 60 60 60 60 60 60 60 60 60 60 60 59 59 59 58 58 58 57 57 59 59 59 59 59 59 59 59 60 60 60 60 60 60 60 60 60 60 60 60 60 60 60 60 59 59 59 59 59 59 59 59 61 61 61 61 61 61 61 61 62 62 62 62 62 62 62 62 61 61 61 62 62 63 63 63 64 64 64 64 64 64 64 64 65 65 65 65 65 65 65 65 66 66 66 67 67 68 68 68 70 70 71 71 72 73 73 73 75 76 78 80 83 85 87 88 91 94 96 98 100 103 107 110 113 116 121 126 132 140 147 153 153 152 151 148 146 142 140 138 135 135 134 132 130 127 125 123 120 120 118 116 114 112 110 110 107 106 106 105 105 105 106 106 107 106 105 103 101 98 96
59 59 59 59 59 59 59 59 59 59 59 59 59 59 59 60 60 60 60 60 60 60 60 60 60 60 60 60 60 60 60 59 59 59 59 58 58 58 57 59 59 59 59 59 59 59 59 60 60 60 60 60 60 60 60 60 60 60 60 60 60 60 60 59 59 59 59 59 59 59 59 61 61 61 61 61 61 61 61 62 62 62 62 62 62 62 62 61 61 61 62 62 63 63 63 64 64 64 64 64 64 64 64 65 65 65 65 65 65 65 65 66 66 66 67 67 68 68 68 69 69 70 70 71 72 73 73 75 76 78 80 82 84 86 87 89 91 94 96 98 101 105 109 111 115 120 125 131 138 146 151 153 153 151 149 146 143 140 139 133 133 133 131 130 127 125 124 124 123 121 118 115 113 110 109 106 105 104 103 102 102 102 102 102 102 101 100 98 96 94
59 59 59 59 59 59 59 59 59 59 59 59 59 59 59 59 59 59 59 59 59 59 59 59 59 59 59 59 59 59 59 60 60 59 59 59 58 58 58 58 58 58 58 58 58 58 58 60 60 60 60 60 60 60 60 60 60 60 60 60 60 60 60 60 60 60 60 60 60 60 60 61 61 61 61 61 61 61 61 62 62 62 62 62 62 62 62 61 61 61 62 62 63 63 63 64 64 64 64 64 64 64 64 65 65 65 65 65 65 65 65 66 66 66 67 67 68 68 68 68 68 69 70 71 72 73 73 75 76 78 80 82 84 85 86 87 90 93 95 97 100 104 108 111 114 119 124 130 137 144 149 154 153 152 150 147 144 141 139 134 134 133 132 131 129 127 126 126 125 122 119 116 113 110 109 105 104 102 101 100 99 99 99 98 98 98 97 96 94 93
59 59 59 59 59 59 59 59 59 59 59 59 59 59 59 59 59 59 59 59 59 59 59 59 59 59 59 59 59 59 59 60 60 60 59 59 59 58 58 58 58 58 58 58 58 58 58 60 60 60 60 60 60 60 60 60 60 60 60 60 60 60 60 60 60 60 60 60 60 60 60 61 61 61 61 61 61 61 61 62 62 62 62 62 62 62 62 61 61 61 62 62 63 63 63 64 64 64 64 64 64 64 64 65 65 65 65 65 65 65 65 66 66 66 67 67 68 68 68 68 68 69 70 72 73 74 74 76 77 78 80 82 84 85 86 87 89 92 95 97 100 105 108 112 115 120 125 130 137 144 149 155 154 153 151 148 145 142 140 136 136 135 135 133 131 130 129 126 125 122 119 115 112 109 108 104 103 101 100 99 98 98 98 97 97 97 97 96 94 93
59 59 59 59 59 59 59 59 59 59 59 59 59 59 59 58 58 58 58 58 58 58 58 58 58 58 58 58 58 58 58 61 60 60 60 59 59 59 59 59 59 59 59 59 59 59 59 60 60 60 60 60 60 60 60 60 60 60 60 60 60 60 60 61 61 61 61 61 61 61 61 61 61 61 61 61 61 61 61 62 62 62 62 62 62 62 62 61 61 61 62 62 63 63 63 64 64 64 64 64 64 64 64 65 65 65 65 65 65 65 65 66 66 66 67 67 68 68 68 68 69 70 71 73 74 75 76 78 78 80 81 83 85 86 86 88 90 93 96 98 102 107 110 114 117 122 126 132 138 145 150 156 155 154 151 149 145 143 141 138 138 137 136 134 132 130 129 124 123 120 117 114 110 108 107 103 103 102 100 100 100 100 100 99 99 99 98 97 96 94
59 59 59 59 59 59 59 59 59 59 59 59 59 59 59 58 58 58 58 58 58 58 58 58 58 58 58 58 58 58 58 61 61 60 60 60 59 59 59 59 59 59 59 59 59 59 59 60 60 60 60 60 60 60 60 60 60 60 60 60 60 60 60 61 61 61 61 61 61 61 61 61 61 61 61 61 61 61 61 62 62 62 62 62 62 62 62 61 61 61 62 62 63 63 63 64 64 64 64 64 64 64 64 65 65 65 65 65 65 65 65 66 66 66 67 67 68 68 68 69 70 71 72 74 76 77 78 79 80 81 83 84 86 87 87 89 92 95 98 100 104 109 113 117 120 124 129 134 140 147 152 156 156 154 152 149 146 143 142 139 139 138 136 134 131 129 127 121 120 118 115 112 109 107 105 103 103 102 101 101 102 102 103 102 102 102 101 100 98 96
59 59 59 59 59 59 59 59 59 59 59 59 59 59 59 58 58 58 58 58 58 58 58 58 58 58 58 58 58 58 58 61 61 61 60 60 59 59 59 60 60 60 60 60 60 60 60 60 60 60 60 60 60 60 60 60 60 60 60 60 60 60 60 61 61 61 61 61 61 61 61 61 61 61 61 61 61 61 61 62 62 62 62 62 62 62 62 61 61 61 62 62 63 63 63 64 64 64 64 64 64 64 64 65 65 65 65 65 65 65 65 66 66 66 67 67 68 68 68 70 70 72 73 75 77 78 79 80 81 82 83 85 86 87 88 90 93 96 99 102 106 110 114 119 122 126 130 135 141 148 153 157 156 155 152 149 146 144 142 139 138 137 135 133 130 127 125 119 118 116 113 110 108 106 105 103 103 103 102 102 103 104 105 105 105 104 103 101 99 97
58 58 58 58 58 58 58 58 58 58 58 58 58 58 58 58 58 58 58 58 58 58 58 57 57 57 58 58 59 59 59 60 60 60 60 60 60 60 60 60 60 60 60 60 60 60 60 60 60 60 60 60 60 60 60 61 61 61 61 61 61 61 61 61 61 61 61 61 61 61 61 62 62 62 62 62 62 62 62 62 62 62 62 62 62 62 62 63 63 63 63 63 63 63 63 64 64 64 64 64 64 64 64 65 65 65 65 65 65 65 65 66 66 67 68 68 69 70 70 69 70 71 72 74 75 77 77 78 80 82 84 84 86 88 90 93 95 97 99 101 105 110 114 122 123 126 131 138 144 150 153 155 153 149 147 146 145 143 141 139 137 133 131 129 127 124 121 119 117 113 110 108 108 108 109 109 109 108 108 107 107 107 106 106 106 106 106 104 101 99
58 58 58 58 58 58 58 58 58 58 58 58 58 58 58 58 58 58 58 58 58 58 58 57 57 58 58 58 59 59 59 60 60 60 60 60 60 60 60 60 60 60 60 60 60 60 60 60 60 60 60 60 60 60 60 61 61 61 61 61 61 61 61 61 61 61 61 61 61 61 61 62 62 62 62 62 62 62 62 62 62 62 62 62 62 62 62 63 63 63 63 63 63 63 63 64 64 64 64 64 64 64 64 65 65 65 65 65 65 65 65 66 66 67 68 69 69 70 70 69 69 70 72 74 75 76 77 78 80 83 84 84 86 88 91 94 96 98 100 102 106 111 115 122 123 127 132 138 144 150 153 154 152 148 146 145 144 142 140 139 136 133 130 129 127 123 121 119 118 115 112 110 110 111 112 112 112 112 111 110 110 109 109 108 108 107 106 104 102 100
58 58 58 58 58 58 58 58 58 58 58 58 58 58 58 58 58 58 58 58 58 58 58 57 58 58 58 59 59 59 59 60 60 60 60 60 60 60 60 60 60 60 60 60 60 60 60 60 60 60 60 60 60 60 60 61 61 61 61 61 61 61 61 61 61 61 61 61 61 61 61 62 62 62 62 62 62 62 62 62 62 62 62 62 62 62 62 63 63 63 63 63 63 63 63 64 64 64 64 64 64 64 64 65 65 65 65 65 65 65 65 66 67 67 68 69 70 70 71 68 69 70 72 73 75 76 77 78 81 83 85 85 86 89 91 95 97 100 102 104 108 112 116 122 124 127 132 139 145 150 153 153 150 147 144 143 142 140 138 137 135 132 130 129 127 124 121 120 119 117 115 114 114 115 116 117 117 116 115 114 113 112 112 111 110 108 105 103 102 101
58 58 58 58 58 58 58 58 58 58 58 58 58 58 58 59 59 59 59 59 59 59 59 58 58 58 59 59 59 60 60 60 60 60 60 60 60 60 60 60 60 60 60 60 60 60 60 60 60 60 60 60 60 60 60 61 61 61 61 61 61 61 61 61 61 61 61 61 61 61 61 62 62 62 62 62 62 62 62 62 62 62 62 62 62 62 62 63 63 63 63 63 63 63 63 64 64 64 64 64 64 64 64 65 65 65 65 65 65 65 65 67 67 68 68 69 70 71 71 68 69 70 72 73 75 76 77 79 81 84 85 86 87 90 92 95 98 102 104 106 110 114 117 121 124 128 133 140 145 150 153 151 149 145 143 142 141 139 137 136 134 131 130 129 128 125 122 122 121 120 119 118 119 119 120 120 119 118 117 116 114 113 113 112 110 107 104 102 101 101
58 58 58 58 58 58 58 58 58 58 58 58 58 58 58 59 59 59 59 59 59 59 59 58 58 59 59 59 60 60 60 60 60 60 60 60 60 60 60 60 60 60 60 60 60 60 60 60 60 60 60 60 60 60 60 61 61 61 61 61 61 61 61 61 61 61 61 61 61 61 61 62 62 62 62 62 62 62 62 62 62 62 62 62 62 62 62 63 63 63 63 63 63 63 63 64 64 64 64 64 64 64 64 65 65 65 65 65 65 65 65 67 67 68 69 70 70 71 71 69 70 71 72 74 76 77 77 80 82 85 86 87 88 91 93 96 99 103 106 108 111 114 117 121 124 128 134 141 146 150 152 151 148 144 142 141 140 138 136 136 134 131 130 130 129 127 124 123 123 122 122 122 122 123 123 121 120 119 117 115 114 112 111 111 109 106 104 102 102 102
58 58 58 58 58 58 58 58 58 58 58 58 58 58 58 60 60 60 60 60 60 60 60 59 59 59 59 60 60 60 61 60 60 60 60 60 60 60 60 60 60 60 60 60 60 60 60 60 60 60 60 60 60 60 60 61 61 61 61 61 61 61 61 61 61 61 61 61 61 61 61 62 62 62 62 62 62 62 62 62 62 62 62 62 62 62 62 63 63 63 63 63 63 63 63 64 64 64 64 64 64 64 64 65 65 65 65 65 65 65 65 67 68 68 69 70 71 71 72 71 71 72 74 76 77 78 79 81 83 86 87 87 89 91 94 95 99 103 106 109 111 114 116 121 124 129 135 142 147 150 152 151 148 144 142 141 140 138 136 136 134 132 132 132 131 129 127 125 125 125 125 125 124 124 124 121 120 119 117 114 112 111 110 109 108 107 106 105 105 105
58 58 58 58 58 58 58 58 58 58 58 58 58 58 58 60 60 60 60 60 60 60 60 59 59 59 60 60 60 61 61 60 60 60 60 60 60 60 60 60 60 60 60 60 60 60 60 60 60 60 60 60 60 60 60 61 61 61 61 61 61 61 61 61 61 61 61 61 61 61 61 62 62 62 62 62 62 62 62 62 62 62 62 62 62 62 62 63 63 63 63 63 63 63 63 64 64 64 64 64 64 64 64 65 65 65 65 65 65 65 65 68 68 69 69 70 71 72 72 72 73 74 75 77 79 80 80 81 84 86 88 88 89 92 94 94 98 103 107 109 111 113 115 121 124 130 136 142 147 151 152 151 148 145 142 141 140 138 136 137 135 133 133 133 133 131 129 127 127 127 127 126 125 124 124 122 121 119 117 114 112 110 109 108 109 109 110 110 109 109
58 58 58 58 58 58 58 58 58 58 58 58 58 58 58 60 60 60 60 60 60 60 60 59 59 59 60 60 61 61 61 60 60 60 60 60 60 60 60 60 60 60 60 60 60 60 60 60 60 60 60 60 60 60 60 61 61 61 61 61 61 61 61 61 61 61 61 61 61 61 61 62 62 62 62 62 62 62 62 62 62 62 62 62 62 62 62 63 63 63 63 63 63 63 63 64 64 64 64 64 64 64 64 65 65 65 65 65 65 65 65 68 68 69 70 70 71 72 72 73 74 75 76 78 80 81 81 82 84 87 88 88 90 92 94 94 98 103 106 109 110 113 115 121 124 130 137 143 148 151 152 151 148 145 143 142 141 138 136 138 136 134 134 135 134 133 131 128 128 128 127 126 125 124 123 123 122 120 117 114 112 110 109 108 109 111 113 113 113 112
58 58 58 58 58 58 58 57 57 57 58 58 59 59 59 59 59 59 59 59 59 59 59 59 59 59 59 59 59 59 59 59 59 59 59 59 59 59 59 59 59 59 59 59 59 59 59 60 60 60 60 60 60 60 60 62 62 62 62 62 62 62 62 61 61 61 61 61 61 61 61 62 63 63 64 64 63 63 62 62 62 62 62 62 62 62 62 63 63 63 63 63 63 63 63 63 63 63 64 64 65 65 65 65 65 65 65 65 65 65 65 67 67 68 69 69 70 71 71 76 76 76 77 79 81 83 84 86 87 88 90 92 94 95 96 96 100 105 109 110 111 112 113 116 122 130 138 143 147 150 152 149 148 147 145 143 141 139 139 138 138 137 136 134 133 132 132 133 132 131 130 128 127 126 125 121 118 115 114 114 115 114 113 115 115 115 114 114 114 114
58 58 58 58 58 58 58 57 57 58 58 58 59 59 59 59 59 59 59 59 59 59 59 59 59 59 59 59 59 59 59 59 59 59 59 59 59 59 59 59 59 59 59 59 59 59 59 60 60 60 60 60 60 60 60 62 62 62 62 62 62 62 62 61 61 61 61 61 61 61 61 62 63 63 64 64 63 63 62 62 62 62 62 62 62 62 62 63 63 63 63 63 63 63 63 63 63 63 64 64 65 65 65 65 65 65 65 65 65 65 65 66 67 68 68 70 70 71 72 76 76 77 78 79 81 83 84 86 87 88 90 92 94 96 96 98 102 106 110 111 111 113 114 116 122 129 136 141 145 149 152 150 149 147 146 143 142 140 139 138 138 137 136 135 133 133 132 131 131 130 129 127 126 125 125 122 120 117 116 116 117 116 115 116 116 115 114 112 112 111
58 58 58 58 58 58 58 57 58 58 58 59 59 59 59 59 59 59 59 59 59 59 59 59 59 59 59 59 59 59 59 59 59 59 59 59 59 59 59 59 59 59 59 59 59 59 59 60 60 60 60 60 60 60 60 62 62 62 62 62 62 62 62 61 61 61 61 61 61 61 61 62 62 63 63 63 63 62 62 62 62 62 62 62 62 62 62 63 63 63 63 63 63 63 63 63 63 63 64 64 65 65 65 65 65 65 65 65 66 66 66 65 66 67 68 70 71 72 73 76 76 77 78 80 82 84 85 86 87 88 90 92 94 96 96 100 103 107 110 110 111 112 114 117 121 127 133 138 143 149 153 151 150 149 147 145 143 141 140 139 138 138 136 135 134 133 133 131 130 129 128 127 126 125 125 124 122 119 119 120 120 119 118 118 117 114 112 110 108 107
58 58 58 58 58 58 58 58 58 58 59 59 59 60 60 60 60 60 60 60 60 60 60 60 60 60 60 60 60 60 60 60 60 60 60 60 60 60 60 60 60 60 60 60 60 60 60 60 60 60 60 60 60 60 60 61 61 61 61 61 61 61 61 61 61 61 61 61 61 61 61 61 62 63 63 63 63 62 61 62 62 62 62 62 62 62 62 63 63 63 63 63 63 63 63 63 63 63 64 64 65 65 65 65 65 65 66 66 66 66 67 65 66 67 68 70 71 72 73 76 76 77 78 80 82 83 85 86 86 88 90 92 94 95 96 99 102 106 108 109 109 111 113 118 121 126 130 135 141 148 152 152 152 150 148 146 144 143 142 140 139 138 137 136 135 134 133 131 131 130 129 128 128 127 127 126 124 122 122 123 123 121 120 119 117 113 110 106 104 103
58 58 58 58 58 58 58 58 58 59 59 59 60 60 60 60 60 60 60 60 60 60 60 60 60 60 60 60 60 60 60 60 60 60 60 60 60 60 60 60 60 60 60 60 60 60 60 60 60 60 60 60 60 60 60 61 61 61 61 61 61 61 61 61 61 61 61 61 61 61 61 61 61 62 63 63 62 61 61 62 62 62 62 62 62 62 62 63 63 63 63 63 63 63 63 63 63 63 64 64 65 65 65 65 65 65 66 66 67 67 68 66 66 67 68 70 71 72 72 75 76 76 77 79 81 83 84 84 85 87 88 91 92 94 95 97 100 103 105 106 107 109 112 119 122 126 129 134 140 147 152 154 153 152 150 148 146 144 144 141 140 139 138 137 136 135 134 133 133 132 131 131 130 130 129 128 126 124 124 124 124 121 119 117 115 111 107 103 101 100
58 58 58 58 58 58 58 59 59 59 59 60 60 60 61 61 61 61 61 61 61 61 61 61 61 61 61 61 61 61 61 61 61 61 61 61 61 61 61 61 61 61 61 61 61 61 61 60 60 60 60 60 60 60 60 60 60 60 60 60 60 60 60 61 61 61 61 61 61 61 61 61 61 62 62 62 62 61 61 62 62 62 62 62 62 62 62 63 63 63 63 63 63 63 63 63 63 63 64 64 65 65 65 65 65 66 66 67 68 68 68 67 67 68 69 69 70 71 71 74 74 75 76 77 79 81 82 83 83 85 87 89 91 92 93 95 98 101 103 104 106 110 112 120 122 126 130 134 140 147 151 156 155 153 151 149 147 146 145 141 141 140 139 138 136 136 135 134 133 133 133 132 132 131 131 129 127 126 125 124 123 119 117 114 112 108 103 100 99 99
58 58 58 58 58 58 58 59 59 59 60 60 60 61 61 61 61 61 61 61 61 61 61 61 61 61 61 61 61 61 61 61 61 61 61 61 61 61 61 61 61 61 61 61 61 61 61 60 60 60 60 60 60 60 60 60 60 60 60 60 60 60 60 61 61 61 61 61 61 61 61 60 61 61 62 62 61 61 60 62 62 62 62 62 62 62 62 63 63 63 63 63 63 63 63 63 63 63 64 64 65 65 65 65 65 66 66 67 68 69 69 69 69 69 69 69 69 69 69 72 73 73 74 76 78 80 81 81 81 83 85 87 89 90 91 94 97 100 102 105 108 112 115 120 123 128 132 136 141 147 151 157 156 154 153 150 149 147 146 142 141 141 139 138 137 136 136 133 133 132 132 132 132 131 131 130 128 126 125 123 121 116 113 111 108 104 101 99 99 100
58 58 58 58 58 58 58 59 59 59 60 60 61 61 61 61 61 61 61 61 61 61 61 61 61 61 61 61 61 61 61 61 61 61 61 61 61 61 61 61 61 61 61 61 61 61 61 60 60 60 60 60 60 60 60 60 60 60 60 60 60 60 60 61 61 61 61 61 61 61 61 60 61 61 62 62 61 61 60 62 62 62 62 62 62 62 62 63 63 63 63 63 63 63 63 63 63 63 64 64 65 65 65 65 65 66 67 68 68 69 70 70 70 70 69 69 68 68 68 71 72 72 73 75 77 79 80 80 80 82 84 86 88 89 90 94 97 100 103 105 109 114 117 120 123 129 133 137 142 147 150 157 157 155 153 151 149 148 147 142 142 141 140 138 137 136 136 132 132 131 131 131 131 131 130 130 128 126 124 122 119 114 110 108 106 102 99 98 98 100
58 58 59 59 60 60 60 60 60 60 60 60 60 60 60 60 60 60 60 60 60 60 60 59 59 59 59 59 59 59 59 61 61 61 61 61 61 61 61 61 61 61 61 61 61 61 61 60 60 60 60 60 60 60 60 60 60 60 60 60 60 60 60 61 61 61 61 61 61 61 61 61 61 61 61 61 61 61 61 62 62 62 62 62 62 62 62 62 62 62 62 62 62 62 62 64 64 64 64 64 64 64 64 64 64 65 66 66 67 68 68 69 68 68 68 68 69 70 71 72 73 74 75 77 78 79 80 80 81 83 85 88 91 93 94 96 100 105 108 110 112 114 116 117 120 126 133 140 146 151 153 158 157 156 153 151 149 147 146 142 142 141 139 137 136 135 134 132 131 129 128 128 128 129 130 128 127 125 122 119 115 111 110 103 102 101 100 100 101 103
58 58 59 59 60 60 60 60 60 60 60 60 60 60 60 60 60 60 60 60 60 60 60 59 59 59 59 59 59 59 59 61 61 61 61 61 61 61 61 61 61 61 61 61 61 61 61 60 60 60 60 60 60 60 60 60 60 60 60 60 60 60 60 61 61 61 61 61 61 61 61 61 61 61 61 61 61 61 61 62 62 62 62 62 62 62 62 62 62 62 62 62 62 62 62 64 64 64 64 64 64 64 64 64 64 65 66 66 67 68 68 69 69 68 68 68 69 70 71 73 73 75 76 78 79 80 81 81 82 84 86 89 91 93 94 96 100 105 109 111 113 116 118 120 123 129 135 142 148 152 154 158 157 155 153 150 148 146 145 142 141 140 138 137 135 134 133 131 130 128 127 126 126 127 127 125 124 122 119 116 113 110 108 103 102 101 101 102 103 104
58 58 59 59 60 60 60 60 60 60 60 60 60 60 60 60 60 60 60 60 60 60 60 59 59 59 59 59 59 59 59 61 61 61 61 61 61 61 61 61 61 61 61 61 61 61 61 60 60 60 60 60 60 60 60 60 60 60 60 60 60 60 60 61 61 61 61 61 61 61 61 61 61 61 61 61 61 61 61 62 62 62 62 62 62 62 62 62 62 62 62 62 62 62 62 64 64 64 64 64 64 64 64 64 64 65 66 66 67 68 68 69 69 68 68 69 70 71 71 74 75 76 78 80 81 82 83 84 85 86 88 90 91 92 93 96 100 105 109 112 115 118 121 124 127 132 138 145 150 154 156 157 156 154 152 149 147 145 144 141 140 139 137 136 134 133 132 129 128 127 125 124 124 124 124 121 120 118 115 112 109 107 106 102 102 102 103 104 106 107
58 58 59 59 60 60 60 59 59 59 59 59 59 59 59 60 60 60 60 60 60 60 60 60 60 60 60 60 60 60 60 61 61 61 61 61 61 61 61 60 60 60 60 60 60 60 60 60 60 60 60 60 60 60 60 60 60 60 60 60 60 60 60 61 61 61 61 61 61 61 61 61 61 61 61 61 61 61 61 62 62 62 62 62 62 62 62 63 63 63 63 63 63 63 63 65 65 65 65 65 65 65 65 64 64 65 66 66 67 68 68 70 69 69 69 69 70 71 72 76 76 78 80 81 83 85 85 87 88 89 90 91 92 93 93 97 100 105 109 112 116 120 123 126 128 133 139 145 150 154 156 156 155 153 151 149 146 145 144 140 139 138 137 135 133 132 132 128 127 126 124 123 122 121 121 117 116 114 111 108 106 104 104 103 103 104 106 107 109 111
58 58 59 59 60 60 60 59 59 59 59 59 59 59 59 60 60 60 60 60 60 60 60 60 60 60 60 60 60 60 60 61 61 61 61 61 61 61 61 60 60 60 60 60 60 60 60 60 60 60 60 60 60 60 60 60 60 60 60 60 60 60 60 61 61 61 61 61 61 61 61 61 61 61 61 61 61 61 61 62 62 62 62 62 62 62 62 63 63 63 63 63 63 63 63 65 65 65 65 65 65 65 65 64 64 65 66 66 67 68 68 70 70 69 69 70 70 71 72 76 77 79 81 83 85 86 87 90 90 91 91 92 93 94 94 97 100 105 108 111 115 120 124 125 128 133 139 145 150 153 155 156 155 153 151 149 146 145 144 140 139 138 137 135 133 132 132 128 127 126 125 123 121 119 118 114 113 110 107 105 104 103 103 104 105 107 109 111 112 113
58 58 59 59 60 60 60 58 58 58 58 58 58 58 58 60 60 60 60 60 60 60 60 61 61 61 61 61 61 61 61 61 61 61 61 61 61 61 61 59 59 59 59 59 59 59 59 60 60 60 60 60 60 60 60 60 60 60 60 60 60 60 60 61 61 61 61 61 61 61 61 61 61 61 61 61 61 61 61 62 62 62 62 62 62 62 62 64 64 64 64 64 64 64 64 66 66 66 66 66 66 66 66 64 64 65 66 66 67 68 68 70 70 70 70 70 71 72 72 76 77 79 81 83 86 87 88 91 91 92 93 94 95 96 96 98 101 104 107 110 114 119 123 124 127 132 138 144 150 154 156 157 156 154 152 149 147 145 144 141 140 139 137 136 134 133 132 129 129 128 127 124 122 119 118 113 111 108 106 104 103 103 104 106 107 109 112 113 115 115
58 58 59 59 60 60 60 58 58 58 58 58 58 58 58 60 60 60 60 60 60 60 60 61 61 61 61 61 61 61 61 61 61 61 61 61 61 61 61 59 59 59 59 59 59 59 59 60 60 60 60 60 60 60 60 60 60 60 60 60 60 60 60 61 61 61 61 61 61 61 61 61 61 61 61 61 61 61 61 62 62 62 62 62 62 62 62 64 64 64 64 64 64 64 64 66 66 66 66 66 66 66 66 64 64 65 66 66 67 68 68 71 70 70 70 70 71 72 73 76 77 79 81 83 86 88 89 91 91 93 94 95 97 98 98 99 101 104 106 108 112 117 121 123 126 132 138 145 151 155 158 158 157 155 153 150 148 146 145 142 141 140 138 137 135 134 133 131 131 130 129 126 123 120 118 113 111 108 105 104 104 104 105 108 110 112 114 115 116 116
58 58 59 59 60 60 60 58 58 58 58 58 58 58 58 60 60 60 60 60 60 60 60 61 61 61 61 61 61 61 61 61 61 61 61 61 61 61 61 59 59 59 59 59 59 59 59 60 60 60 60 60 60 60 60 60 60 60 60 60 60 60 60 61 61 61 61 61 61 61 61 61 61 61 61 61 61 61 61 62 62 62 62 62 62 62 62 64 64 64 64 64 64 64 64 66 66 66 66 66 66 66 66 64 64 65 66 66 67 68 68 71 71 70 70 70 71 72 73 75 76 78 81 83 86 88 89 91 92 93 94 96 98 99 99 99 101 104 105 107 111 116 119 123 126 132 139 146 153 157 159 158 157 156 153 151 149 147 146 142 142 140 139 137 136 135 134 133 133 132 130 127 124 121 119 113 111 108 105 104 104 105 106 110 111 113 115 116 117 116
59 59 58 58 57 57 57 58 58 58 59 59 60 60 60 60 60 60 60 60 60 60 60 60 60 60 60 60 60 60 60 60 60 60 60 60 60 60 60 58 58 58 59 59 60 60 60 60 60 60 60 60 60 60 60 60 60 60 60 60 60 60 60 61 61 61 61 61 61 61 61 61 61 61 61 61 61 61 61 61 61 62 62 62 63 63 63 61 61 62 62 63 64 65 65 64 64 64 65 65 66 66 66 65 65 65 66 66 67 67 67 71 71 72 73 74 75 75 76 76 76 77 79 81 84 86 88 91 92 95 98 100 102 103 103 103 104 105 108 111 114 117 119 122 126 132 140 147 153 157 158 157 156 155 153 151 149 147 147 147 144 141 139 139 140 139 138 138 136 134 132 130 126 121 117 114 111 108 105 105 107 110 112 110 111 114 117 118 119 119
59 59 58 58 58 57 57 58 58 58 59 59 60 60 60 60 60 60 60 60 60 60 60 60 60 60 60 60 60 60 60 60 60 60 60 60 60 60 60 58 58 58 59 59 60 60 60 60 60 60 60 60 60 60 60 60 60 60 60 60 60 60 60 61 61 61 61 61 61 61 61 61 61 61 61 61 61 61 61 61 61 61 61 62 62 62 63 61 61 62 63 64 64 65 65 64 64 64 65 65 66 66 66 65 65 66 66 66 67 67 67 70 71 72 73 75 76 77 77 77 77 78 79 81 84 86 87 91 92 95 98 100 102 103 104 103 104 105 108 111 115 118 119 123 127 133 140 147 153 157 159 158 157 156 154 152 150 148 148 148 145 143 141 141 141 139 138 138 136 133 131 129 125 121 117 113 111 107 105 105 107 110 112 111 112 115 117 119 120 120
59 59 59 58 58 58 57 58 58 58 59 59 60 60 60 60 60 60 60 60 60 60 60 60 60 60 60 60 60 60 60 60 60 60 60 60 60 60 60 58 58 58 59 59 60 60 60 60 60 60 60 60 60 60 60 60 60 60 60 60 60 60 60 61 61 61 61 61 61 61 61 61 61 61 61 61 61 61 61 60 60 60 61 61 62 62 62 62 62 62 63 64 64 65 65 64 64 64 65 65 66 66 66 65 66 66 66 67 67 67 67 69 70 71 73 75 77 78 79 79 79 80 80 82 83 85 86 91 93 95 98 100 102 103 104 104 104 106 109 112 116 119 121 124 128 133 140 147 153 157 159 160 159 157 155 153 151 150 149 149 147 145 145 145 143 140 137 138 135 132 130 128 124 120 117 111 109 107 105 105 107 110 112 112 114 117 119 120 121 121
60 59 59 59 58 58 58 58 58 58 59 59 60 60 60 60 60 60 60 60 60 60 60 59 59 59 59 59 59 59 59 59 59 59 59 59 59 59 59 58 58 58 59 59 60 60 60 60 60 60 60 60 60 60 60 60 60 60 60 60 60 60 60 61 61 61 61 61 61 61 61 61 61 61 61 61 61 61 61 60 60 60 60 61 61 62 62 62 63 63 64 64 65 65 65 64 64 64 65 65 66 66 66 66 66 66 67 67 67 68 68 68 68 70 72 74 77 78 79 81 81 81 81 82 84 85 86 92 93 96 98 101 103 104 104 104 105 107 110 113 117 120 122 126 129 134 141 147 153 158 160 161 160 159 157 155 153 151 151 150 149 148 147 147 144 140 137 137 134 130 128 126 123 119 116 110 108 106 105 106 108 111 113 115 116 119 121 122 123 122
60 60 59 59 59 58 58 58 58 58 59 59 60 60 60 60 60 60 60 60 60 60 60 59 59 59 59 59 59 59 59 59 59 59 59 59 59 59 59 58 58 58 59 59 60 60 60 60 60 60 60 60 60 60 60 60 60 60 60 60 60 60 60 61 61 61 61 61 61 61 61 61 61 61 61 61 61 61 61 60 60 60 61 61 62 62 62 63 64 64 64 64 65 65 65 64 64 64 65 65 66 66 66 66 66 67 67 67 68 68 68 67 67 69 71 73 76 77 78 82 82 82 82 83 85 86 87 92 94 96 99 101 103 104 105 105 106 108 111 115 119 122 124 128 131 135 141 147 154 158 161 162 161 160 158 156 154 152 151 152 150 148 148 146 144 139 136 135 132 128 125 123 120 116 114 109 108 107 107 108 110 112 114 118 119 121 123 124 124 124
60 60 60 59 59 59 59 58 58 58 59 59 60 60 60 60 60 60 60 60 60 60 60 58 58 58 58 58 58 58 58 58 58 58 58 58 58 58 58 58 58 58 59 59 60 60 60 60 60 60 60 60 60 60 60 60 60 60 60 60 60 60 60 61 61 61 61 61 61 61 61 61 61 61 61 61 61 61 61 61 61 62 62 62 63 63 63 64 64 64 65 65 65 65 65 64 64 64 65 65 66 66 66 67 67 67 67 68 68 68 69 68 69 70 72 74 76 77 78 81 82 82 83 84 86 87 88 93 94 96 99 102 103 105 105 105 106 109 112 116 120 124 126 130 132 136 141 147 154 159 162 162 161 160 158 156 154 152 151 152 150 147 145 144 141 137 134 132 129 124 121 119 117 114 111 109 108 108 108 110 112 114 116 120 121 123 125 126 126 125
61 60 60 60 59 59 59 58 58 58 59 59 60 60 60 60 60 60 60 60 60 60 60 58 58 58 58 58 58 58 58 58 58 58 58 58 58 58 58 58 58 58 59 59 60 60 60 60 60 60 60 60 60 60 60 60 60 60 60 60 60 60 60 61 61 61 61 61 61 61 61 61 61 61 61 61 61 61 61 62 62 63 63 64 64 64 64 65 65 65 65 65 65 65 65 64 64 64 65 65 66 66 66 67 67 67 68 68 68 69 69 72 72 73 74 76 77 78 79 81 81 82 83 85 87 89 90 93 94 97 99 102 104 105 105 106 107 109 113 117 121 125 127 132 133 136 141 147 154 159 163 161 161 159 157 155 153 152 151 153 149 145 142 140 138 135 133 130 126 122 118 116 114 111 109 109 109 109 110 112 114 117 118 122 123 125 127 127 127 126
61 61 60 60 59 59 59 58 58 58 59 59 60 60 60 60 60 60 60 60 60 60 60 58 58 58 58 58 58 58 58 58 58 58 58 58 58 58 58 58 58 58 59 59 60 60 60 60 60 60 60 60 60 60 60 60 60 60 60 60 60 60 60 61 61 61 61 61 61 61 61 61 61 61 61 61 61 61 61 63 63 64 64 64 65 65 65 65 65 65 65 65 65 65 65 64 64 64 65 65 66 66 66 67 67 67 68 68 69 69 69 75 75 76 77 78 79 79 80 80 81 81 83 85 88 90 92 93 94 97 100 102 104 105 105 106 107 110 113 117 122 126 128 132 134 137 141 148 154 160 163 161 160 159 157 155 153 152 151 153 149 144 140 138 136 134 132 129 125 120 116 114 112 110 108 109 109 110 111 113 116 118 119 123 124 126 127 128 128 127
59 59 59 59 59 59 59 58 58 58 58 58 58 58 58 58 58 58 58 58 58 58 58 57 57 57 57 57 57 57 57 58 58 58 59 59 60 60 60 60 60 60 60 60 60 60 60 60 60 60 60 60 60 60 60 61 61 61 61 61 61 61 61 61 61 61 61 61 61 61 61 62 62 62 62 62 62 62 62 62 62 63 63 63 64 64 64 63 63 63 64 64 65 65 65 63 63 63 64 64 65 65 65 68 67 67 67 68 70 72 73 73 75 78 81 83 83 83 82 83 84 86 86 86 87 90 93 99 100 102 102 102 102 104 106 106 109 112 115 117 119 123 126 131 134 139 145 151 156 159 161 158 157 155 155 155 154 151 148 144 143 141 139 136 133 132 131 123 121 119 116 112 109 107 106 108 110 113 114 115 117 119 122 128 129 130 131 132 131 130
59 59 59 59 59 59 59 58 58 58 58 58 58 58 58 58 58 58 58 58 58 58 58 57 57 57 57 57 57 57 57 58 58 58 59 59 60 60 60 60 60 60 60 60 60 60 60 60 60 60 60 60 60 60 60 61 61 61 61 61 61 61 61 61 61 61 61 61 61 61 61 62 62 62 62 62 62 62 62 61 62 62 62 63 63 63 64 63 63 63 64 64 65 65 65 63 63 64 64 64 65 65 65 67 67 67 67 69 71 73 74 75 77 80 82 84 85 84 83 82 84 86 87 87 89 92 95 99 101 103 103 103 103 105 107 107 110 113 116 117 120 123 126 132 134 139 145 151 155 158 160 158 156 155 154 154 153 150 147 144 143 141 138 135 132 130 129 121 120 118 115 112 109 107 106 108 111 114 115 116 118 121 123 129 130 131 132 132 131 130
59 59 59 59 59 59 59 58 58 58 58 58 58 58 58 58 58 58 58 58 58 58 58 57 57 57 57 57 57 57 57 58 58 59 59 59 59 60 60 60 60 60 60 60 60 60 60 60 60 60 60 60 60 60 60 61 61 61 61 61 61 61 61 61 61 61 61 61 61 61 61 62 62 62 62 62 62 62 62 60 61 61 61 62 62 62 63 63 63 63 64 64 65 65 65 63 64 64 64 65 65 65 65 66 67 67 68 70 73 75 76 78 79 82 84 86 86 86 86 83 85 87 88 89 91 94 97 99 101 103 104 104 104 106 108 110 113 116 118 119 120 123 126 132 135 140 146 151 155 157 158 157 155 153 153 153 151 148 146 143 142 139 136 132 129 127 125 119 118 116 113 110 108 107 106 110 112 115 117 118 120 123 125 130 131 132 133 133 132 131
58 58 58 58 58 58 58 58 58 58 58 58 58 58 58 58 58 58 58 58 58 58 58 58 58 58 58 58 58 58 58 59 59 59 59 59 59 59 59 60 60 60 60 60 60 60 60 60 60 60 60 60 60 60 60 61 61 61 61 61 61 61 61 61 61 61 61 61 61 61 61 62 62 62 62 62 62 62 62 60 60 60 61 61 61 62 62 63 63 63 64 64 65 65 65 64 64 64 65 65 65 66 66 66 67 68 70 72 74 76 77 81 82 84 86 87 87 87 87 87 88 90 90 90 91 94 97 97 99 102 103 103 104 107 109 113 115 118 120 120 122 124 127 134 137 142 147 152 154 156 156 155 154 152 151 151 149 146 143 141 140 137 133 129 126 123 122 117 116 113 111 109 108 107 107 112 114 117 119 120 122 125 128 132 133 134 135 135 133 132
58 58 58 58 58 58 58 58 58 58 58 58 58 58 58 58 58 58 58 58 58 58 58 58 58 58 58 58 58 58 58 59 59 59 59 59 59 59 59 60 60 60 60 60 60 60 60 60 60 60 60 60 60 60 60 61 61 61 61 61 61 61 61 61 61 61 61 61 61 61 61 62 62 62 62 62 62 62 62 60 60 60 61 61 61 62 62 63 63 63 64 64 65 65 65 64 64 65 65 65 66 66 66 67 68 69 72 74 76 77 78 82 83 84 85 87 87 88 88 90 91 92 91 90 91 93 95 96 98 101 102 103 104 107 110 115 117 120 122 122 124 127 129 136 139 144 149 153 155 155 155 154 152 150 149 148 147 143 140 138 137 134 131 127 123 120 119 116 114 112 109 108 108 109 109 113 116 119 122 123 125 128 131 135 135 136 137 136 135 133
57 57 57 57 57 57 57 58 58 58 58 58 58 58 58 58 58 58 58 58 58 58 58 59 59 59 59 59 59 59 59 60 60 59 59 59 59 58 58 60 60 60 60 60 60 60 60 60 60 60 60 60 60 60 60 61 61 61 61 61 61 61 61 61 61 61 61 61 61 61 61 62 62 62 62 62 62 62 62 60 61 61 61 62 62 62 63 63 63 63 64 64 65 65 65 65 65 65 65 66 66 66 67 68 69 71 74 76 77 77 78 82 83 83 84 85 86 87 87 90 91 92 91 90 91 93 95 95 98 101 103 104 106 109 111 116 119 122 123 124 126 129 132 139 142 147 152 155 156 156 155 152 151 148 147 146 144 141 138 135 133 131 128 124 121 118 117 115 113 111 109 108 109 111 112 115 118 121 124 125 128 131 134 137 137 138 138 138 136 134
57 57 57 57 57 57 57 58 58 58 58 58 58 58 58 58 58 58 58 58 58 58 58 59 59 59 59 59 59 59 59 60 60 60 59 59 58 58 58 60 60 60 60 60 60 60 60 60 60 60 60 60 60 60 60 61 61 61 61 61 61 61 61 61 61 61 61 61 61 61 61 62 62 62 62 62 62 62 62 61 62 62 62 63 63 63 64 63 63 63 64 64 65 65 65 65 65 65 66 66 66 67 67 70 71 73 75 77 77 77 77 82 82 82 82 83 84 85 85 87 88 90 90 91 92 95 98 97 100 103 105 107 109 112 115 116 119 122 125 126 129 132 135 142 145 150 155 157 158 156 155 151 149 147 146 145 143 139 136 131 130 128 125 122 119 117 116 115 113 111 109 109 110 112 114 117 119 123 125 127 130 133 136 138 139 140 140 139 137 135
57 57 57 57 57 57 57 58 58 58 58 58 58 58 58 58 58 58 58 58 58 58 58 59 59 59 59 59 59 59 59 60 60 60 59 59 58 58 58 60 60 60 60 60 60 60 60 60 60 60 60 60 60 60 60 61 61 61 61 61 61 61 61 61 61 61 61 61 61 61 61 62 62 62 62 62 62 62 62 62 62 63 63 63 64 64 64 63 63 63 64 64 65 65 65 65 65 65 66 66 67 67 67 71 72 74 76 77 77 77 76 81 81 80 81 81 82 83 84 83 85 88 89 91 93 97 100 99 102 105 107 109 111 115 118 116 119 123 125 127 130 133 136 143 146 151 156 159 158 157 155 151 149 147 145 144 142 138 135 129 128 127 124 121 119 117 116 115 113 111 109 109 111 114 115 117 120 124 126 128 131 134 137 139 140 140 140 139 137 135
58 58 58 58 58 58 58 58 58 58 58 58 58 58 58 58 58 58 58 58 58 58 58 60 60 60 60 60 60 60 60 59 59 59 59 59 59 59 59 60 60 60 60 60 60 60 60 61 61 61 61 61 61 61 61 61 61 61 61 61 61 61 61 62 62 62 62 62 62 62 62 63 63 63 63 63 63 63 63 63 63 63 63 63 63 63 63 64 64 64 64 64 64 64 64 66 65 65 65 66 68 70 72 73 74 75 76 76 76 76 75 77 77 77 76 75 76 80 83 85 86 87 89 91 93 94 95 100 103 106 108 110 112 115 118 121 122 124 125 128 132 138 142 146 150 155 158 158 156 155 154 151 150 148 147 147 145 142 139 137 134 130 128 126 123 120 117 117 115 112 109 108 110 112 113 115 119 124 128 131 134 138 141 142 142 141 140 139 139 138
58 58 58 58 58 58 58 58 58 58 58 58 58 58 58 58 58 58 58 58 58 58 58 60 60 60 60 60 60 60 60 59 59 59 59 59 59 59 59 60 60 60 60 60 60 60 60 61 61 61 61 61 61 61 61 61 61 61 61 61 61 61 61 62 62 62 62 62 62 62 62 63 63 63 63 63 63 63 63 63 63 63 63 63 63 63 63 64 64 64 64 64 64 64 64 65 65 64 65 66 68 70 71 73 74 75 76 76 76 76 75 77 78 78 77 76 77 80 82 86 86 88 90 92 93 95 96 100 103 106 108 110 112 115 117 120 122 124 126 129 133 139 144 148 152 157 159 158 156 155 154 151 149 148 147 147 146 142 140 140 137 133 131 129 126 123 120 117 115 111 109 108 110 112 114 116 120 125 129 132 136 139 142 142 142 142 141 140 139 139
58 58 58 58 58 58 58 58 58 58 58 58 58 58 58 58 58 58 58 58 58 58 58 60 60 60 60 60 60 60 60 59 59 59 59 59 59 59 59 60 60 60 60 60 60 60 60 61 61 61 61 61 61 61 61 61 61 61 61 61 61 61 61 62 62 62 62 62 62 62 62 63 63 63 63 63 63 63 63 63 63 63 63 63 63 63 63 64 64 64 64 64 64 64 64 65 64 65 65 66 68 70 71 73 74 75 76 76 76 76 75 78 79 80 80 79 79 80 82 87 87 89 91 93 95 97 97 101 103 106 108 109 111 114 117 119 122 125 128 131 136 142 146 150 154 158 159 158 155 154 153 151 149 148 147 147 146 143 141 142 139 136 133 131 129 126 123 116 114 111 109 109 110 113 115 119 123 128 132 134 137 141 144 143 143 142 142 141 140 139
58 58 58 58 58 58 58 58 58 58 58 58 58 58 58 59 59 59 59 59 59 59 59 60 60 60 60 60 60 60 60 59 59 59 59 59 59 59 59 60 60 60 60 60 60 60 60 61 61 61 61 61 61 61 61 61 61 61 61 61 61 61 61 62 62 62 62 62 62 62 62 63 63 63 63 63 63 63 63 64 64 64 64 64 64 64 64 65 65 65 65 65 65 65 65 64 65 65 66 68 69 70 71 73 74 75 76 76 76 76 75 79 81 83 84 82 82 82 83 88 89 91 93 95 97 99 100 102 104 107 109 110 112 114 117 119 122 126 130 134 139 145 149 152 155 158 158 156 153 152 151 151 149 148 147 147 146 143 140 139 137 134 131 130 128 125 122 115 113 110 109 109 111 114 116 122 125 130 134 136 139 143 145 144 144 144 143 142 141 141
58 58 58 58 58 58 58 58 58 58 58 58 58 58 58 59 59 59 59 59 59 59 59 60 60 60 60 60 60 60 60 59 59 59 59 59 59 59 59 60 60 60 60 60 60 60 60 61 61 61 61 61 61 61 61 61 61 61 61 61 61 61 61 62 62 62 62 62 62 62 62 63 63 63 63 63 63 63 63 64 64 64 64 64 64 64 64 65 65 65 65 65 65 65 65 65 66 67 68 69 70 71 71 73 74 75 76 76 76 76 75 80 83 85 86 85 85 86 87 89 90 92 95 97 100 102 103 103 106 108 110 111 112 115 118 120 123 128 132 137 142 147 151 152 154 157 157 154 152 151 151 151 150 148 147 146 144 141 139 134 132 128 126 125 123 120 118 114 112 110 108 109 112 115 117 124 127 132 136 138 141 144 146 146 145 145 144 143 142 142
58 58 58 58 58 58 58 58 58 58 58 58 58 58 58 60 60 60 60 60 60 60 60 60 60 60 60 60 60 60 60 59 59 59 59 59 59 59 59 60 60 60 60 60 60 60 60 61 61 61 61 61 61 61 61 61 61 61 61 61 61 61 61 62 62 62 62 62 62 62 62 63 63 63 63 63 63 63 63 65 65 65 65 65 65 65 65 66 66 66 66 66 66 66 66 66 67 69 71 72 72 73 73 73 74 75 76 76 76 76 75 79 81 83 84 84 85 88 90 91 92 94 97 99 102 104 105 106 108 111 112 113 114 117 119 122 125 130 135 139 144 148 152 153 155 157 157 154 152 152 152 152 150 147 146 144 142 138 135 129 127 124 122 121 119 116 114 113 111 109 108 109 112 116 118 125 129 133 137 139 141 144 147 147 147 146 145 144 144 143
58 58 58 58 58 58 58 58 58 58 58 58 58 58 58 60 60 60 60 60 60 60 60 60 60 60 60 60 60 60 60 59 59 59 59 59 59 59 59 60 60 60 60 60 60 60 60 61 61 61 61 61 61 61 61 61 61 61 61 61 61 61 61 62 62 62 62 62 62 62 62 63 63 63 63 63 63 63 63 65 65 65 65 65 65 65 65 66 66 66 66 66 66 66 66 68 69 71 73 74 74 74 74 73 74 75 76 76 76 76 75 76 78 79 80 81 84 88 91 92 93 95 98 101 104 106 107 108 110 113 114 114 116 118 120 124 127 133 137 141 145 149 152 154 156 158 158 156 155 155 156 152 150 147 145 143 139 135 131 127 125 122 121 120 118 115 113 112 110 109 108 109 113 116 119 126 129 134 137 139 141 144 147 148 147 147 146 145 144 144
58 58 58 58 58 58 58 58 58 58 58 58 58 58 58 60 60 60 60 60 60 60 60 60 60 60 60 60 60 60 60 59 59 59 59 59 59 59 59 60 60 60 60 60 60 60 60 61 61 61 61 61 61 61 61 61 61 61 61 61 61 61 61 62 62 62 62 62 62 62 62 63 63 63 63 63 63 63 63 65 65 65 65 65 65 65 65 66 66 66 66 66 66 66 66 69 70 72 74 75 76 75 75 73 74 75 76 76 76 76 75 74 75 76 77 78 82 87 91 93 94 96 99 102 105 107 108 109 111 114 115 115 117 119 121 125 129 134 138 142 145 149 152 156 158 160 160 158 157 158 159 153 150 147 144 141 137 133 129 128 125 122 121 120 119 116 114 111 110 108 108 110 113 117 119 126 129 134 137 139 141 144 146 148 148 147 147 146 145 144
58 58 58 58 58 58 58 59 59 59 59 59 59 59 59 61 61 61 61 61 61 61 61 61 61 61 61 61 61 61 61 61 61 61 60 60 59 59 59 60 60 60 60 60 60 60 60 60 60 60 60 60 60 60 60 62 62 62 62 62 62 62 62 62 62 62 62 62 62 62 62 62 62 62 63 63 64 64 64 64 64 64 65 65 66 66 66 65 65 66 66 66 66 66 67 71 72 74 76 76 76 75 74 73 73 74 74 74 74 74 74 76 77 78 79 80 84 89 93 94 95 97 100 103 106 108 109 112 113 114 114 114 117 121 125 126 130 136 141 144 148 153 156 158 159 160 160 159 158 156 155 149 148 146 144 141 137 134 132 133 132 130 126 123 120 117 116 112 111 109 109 110 114 118 120 127 130 133 136 139 143 148 151 150 150 149 149 149 150 151
58 58 58 58 58 58 58 59 59 59 59 59 59 59 59 61 61 61 61 61 61 61 61 61 61 61 61 61 61 61 61 61 61 61 60 60 59 59 59 60 60 60 60 60 60 60 60 60 60 60 60 60 60 60 60 62 62 62 62 62 62 62 62 62 62 62 62 62 62 62 62 62 62 62 63 63 64 64 64 64 64 64 65 65 66 66 66 65 66 66 66 66 67 67 67 71 72 73 74 75 75 74 73 73 73 74 74 75 75 76 76 75 76 77 77 78 81 85 89 92 93 95 98 101 104 106 107 111 112 112 112 113 116 121 125 127 131 137 142 146 150 154 157 159 159 160 160 159 157 155 154 150 149 148 147 145 143 140 139 138 136 133 130 125 122 119 117 113 112 110 109 111 114 118 120 126 129 132 135 138 141 146 149 149 149 149 150 150 150 151
58 58 58 58 58 58 58 59 59 59 59 59 59 59 59 61 61 61 61 61 61 61 61 61 61 61 61 61 61 61 61 61 61 61 60 60 59 59 59 60 60 60 60 60 60 60 60 60 60 60 60 60 60 60 60 62 62 62 62 62 62 62 62 62 62 62 62 62 62 62 62 62 62 62 63 63 64 64 64 64 64 64 65 65 66 66 66 66 66 66 67 67 68 68 68 70 71 72 73 73 73 72 72 72 73 74 75 76 77 77 78 78 79 79 79 78 80 83 86 89 90 92 95 98 100 102 103 108 109 110 111 112 115 120 124 130 134 139 144 148 152 156 159 160 160 160 159 158 156 154 153 152 152 152 151 150 149 147 146 144 142 138 134 129 124 120 118 114 113 111 110 111 114 117 120 124 127 130 134 136 139 143 146 148 149 150 152 152 152 151
58 58 58 58 58 58 58 59 59 59 59 59 59 59 59 60 60 60 60 60 60 60 60 61 61 61 61 61 61 61 61 61 61 61 60 60 59 59 59 60 60 60 60 60 60 60 60 60 60 60 60 60 60 60 60 62 62 62 62 62 62 62 62 62 62 62 62 62 62 62 62 62 62 62 63 63 64 64 64 64 64 64 65 65 66 66 66 66 66 67 67 68 69 69 69 70 71 71 71 71 71 71 71 72 72 73 75 76 77 78 79 83 83 84 83 81 81 83 85 87 88 90 92 95 97 99 100 105 106 108 109 111 115 120 124 132 136 141 146 150 154 158 161 162 161 160 159 157 155 153 152 155 155 155 154 153 151 149 149 146 144 140 135 130 125 121 119 116 115 112 111 112 114 117 119 121 125 129 132 134 137 140 143 147 149 152 154 154 154 152
58 58 58 58 58 58 58 59 59 59 59 59 59 59 59 60 60 60 60 60 60 60 60 61 61 61 61 61 61 61 61 61 61 61 60 60 59 59 59 60 60 60 60 60 60 60 60 60 60 60 60 60 60 60 60 62 62 62 62 62 62 62 62 62 62 62 62 62 62 62 62 62 62 62 63 63 64 64 64 64 64 64 65 65 66 66 66 66 66 67 68 69 70 70 71 71 71 71 70 70 70 71 71 71 72 73 74 76 77 78 79 83 84 85 84 82 82 83 85 86 87 89 91 93 95 97 98 102 104 106 108 110 115 121 125 133 137 143 148 152 156 160 163 163 162 161 159 157 155 154 154 158 157 156 154 152 149 147 145 145 143 140 135 129 124 121 119 118 116 114 112 112 114 117 119 120 123 128 131 133 135 138 140 146 148 151 153 154 154 152
58 58 58 58 58 58 58 59 59 59 59 59 59 59 59 59 59 59 59 59 59 59 59 61 61 61 61 61 61 61 61 61 61 61 60 60 59 59 59 60 60 60 60 60 60 60 60 60 60 60 60 60 60 60 60 62 62 62 62 62 62 62 62 62 62 62 62 62 62 62 62 62 62 62 63 63 64 64 64 64 64 64 65 65 66 66 66 66 67 68 69 70 71 72 72 73 72 71 70 70 70 71 71 71 72 72 73 74 75 76 77 79 81 82 82 81 81 82 84 86 87 89 91 93 95 96 97 101 103 105 107 110 116 122 127 134 138 144 149 153 156 161 164 164 163 161 160 158 157 157 157 159 158 156 153 150 146 143 142 142 140 137 133 129 125 122 120 120 118 115 113 113 114 117 119 119 122 127 131 133 134 136 138 144 145 147 149 150 151 150
58 58 58 58 58 58 58 59 59 59 59 59 59 59 59 59 59 59 59 59 59 59 59 61 61 61 61 61 61 61 61 61 61 61 60 60 59 59 59 60 60 60 60 60 60 60 60 60 60 60 60 60 60 60 60 62 62 62 62 62 62 62 62 62 62 62 62 62 62 62 62 62 62 62 63 63 64 64 64 64 64 64 65 65 66 66 66 66 67 68 69 70 72 73 73 74 73 72 70 70 70 71 72 71 71 72 72 73 73 74 74 77 79 82 82 82 82 84 86 87 88 90 91 93 95 97 97 100 102 105 107 111 117 124 128 135 139 144 149 153 157 161 164 165 164 162 160 159 159 160 160 158 157 155 153 149 145 142 141 138 137 135 132 129 126 124 123 121 119 116 114 113 115 117 119 118 122 128 131 133 134 136 137 140 140 141 143 144 145 146
58 58 58 58 58 58 58 59 59 59 59 59 59 59 59 59 59 59 59 59 59 59 59 61 61 61 61 61 61 61 61 61 61 61 60 60 59 59 59 60 60 60 60 60 60 60 60 60 60 60 60 60 60 60 60 62 62 62 62 62 62 62 62 62 62 62 62 62 62 62 62 62 62 62 63 63 64 64 64 64 64 64 65 65 66 66 66 67 67 68 69 71 72 73 74 75 74 72 71 70 71 72 72 71 71 72 72 72 72 72 72 77 80 83 85 85 86 88 89 88 89 90 92 94 96 97 98 100 102 105 108 112 117 124 129 134 138 144 149 153 157 161 164 165 164 162 161 160 161 162 162 156 156 154 152 149 146 143 141 137 136 134 132 130 128 126 125 122 120 117 114 113 115 117 119 118 123 128 132 133 134 135 137 137 137 137 138 139 141 143
58 58 58 58 58 58 58 58 58 58 58 58 58 58 58 59 59 59 59 59 59 59 59 60 60 60 60 60 60 60 60 61 61 61 61 61 61 61 61 61 61 61 61 61 61 61 61 61 61 61 60 60 59 59 59 60 60 60 61 61 62 62 62 61 61 61 62 62 63 63 63 64 64 64 64 64 64 64 64 64 64 64 65 65 65 66 66 68 69 69 70 72 73 74 74 71 70 70 70 70 71 72 73 72 72 72 73 73 73 73 73 77 78 80 82 85 88 90 91 93 94 94 95 96 97 98 98 101 104 107 110 114 119 125 129 135 140 146 152 156 160 164 166 162 164 165 164 161 159 159 160 159 157 154 150 147 144 144 143 139 136 133 131 130 128 126 124 120 119 118 116 115 114 113 113 120 121 123 125 127 128 130 130 131 133 135 136 135 134 135
58 58 58 58 58 58 58 58 58 58 58 58 58 58 58 59 59 59 59 59 59 59 59 60 60 60 60 60 60 60 60 61 61 61 61 61 61 61 61 61 61 61 61 61 61 61 61 61 61 61 60 60 60 59 59 60 60 60 61 61 62 62 62 61 61 61 62 62 63 63 63 64 64 64 64 64 64 64 64 64 65 65 65 66 66 66 67 68 68 69 69 70 71 71 72 71 70 70 70 70 71 72 73 73 73 73 74 74 74 74 75 77 79 81 83 86 89 91 92 95 95 96 97 98 99 100 100 103 105 108 112 116 122 129 134 137 141 147 152 156 159 163 166 164 165 166 166 163 161 161 162 160 158 155 151 148 146 145 145 141 138 134 132 130 129 126 124 124 122 119 116 114 113 113 113 118 119 119 121 122 124 126 127 128 130 132 133 132 132 133
58 58 58 58 58 58 58 58 58 58 58 58 58 58 58 59 59 59 59 59 59 59 59 60 60 60 60 60 60 60 60 61 61 61 61 61 61 61 61 61 61 61 61 61 61 61 61 61 61 61 61 60 60 60 59 60 60 60 61 61 62 62 62 61 61 62 62 62 62 63 63 64 64 64 64 64 64 64 64 65 66 66 66 67 67 67 68 69 69 69 69 69 69 69 69 71 70 70 70 70 71 72 73 74 74 75 75 76 76 76 77 79 80 82 85 88 90 92 94 97 98 99 100 101 103 104 104 106 108 110 113 118 125 133 138 139 142 147 152 155 158 161 164 165 167 168 167 165 163 163 164 161 160 157 154 151 149 148 147 144 141 136 133 131 129 126 123 126 123 120 116 114 113 114 114 116 116 116 116 118 120 122 124 124 127 129 130 129 129 130
58 58 58 58 58 58 58 58 58 58 58 58 58 58 58 59 59 59 59 59 59 59 59 60 60 60 60 60 60 60 60 61 61 61 61 61 61 61 61 61 61 61 61 61 61 61 61 62 62 61 61 61 60 60 60 60 60 60 61 61 62 62 62 62 62 62 62 62 62 62 62 63 63 64 64 64 64 65 65 66 66 67 67 67 68 68 68 71 70 70 70 69 69 68 68 71 70 70 70 70 71 72 73 75 75 76 76 77 78 78 79 80 82 84 86 89 92 94 95 99 100 101 103 104 106 107 108 110 111 113 115 118 124 132 138 138 141 145 149 151 154 158 161 165 166 168 167 165 163 164 164 163 161 159 156 153 151 149 148 146 142 137 133 131 128 124 122 123 121 118 115 114 114 116 117 116 115 115 114 115 118 120 122 122 125 128 129 129 129 130
58 58 58 58 58 58 58 58 58 58 58 58 58 58 58 59 59 59 59 59 59 59 59 60 60 60 60 60 60 60 60 61 61 61 61 61 61 61 61 61 61 61 61 61 61 61 61 62 62 62 61 61 61 60 60 60 60 60 61 61 62 62 62 62 62 62 62 62 62 62 62 63 63 63 64 64 65 65 65 66 66 67 67 67 68 68 68 73 72 72 71 70 70 69 69 71 70 70 70 70 71 72 73 75 76 76 77 78 79 80 80 81 82 84 87 90 93 95 96 99 100 102 104 106 108 110 111 114 115 115 116 118 122 128 133 136 139 142 145 147 150 154 157 163 165 167 166 165 163 163 164 164 162 160 157 154 151 148 147 145 141 136 132 129 126 123 120 118 117 115 114 115 116 118 120 118 118 117 117 117 119 120 121 123 125 128 130 130 131 133
58 58 58 58 58 58 58 58 58 58 58 58 58 58 58 59 59 59 59 59 59 59 59 60 60 60 60 60 60 60 60 61 61 61 61 61 61 61 61 61 61 61 61 61 61 61 61 63 62 62 62 61 61 61 61 60 60 60 61 61 62 62 62 63 63 62 62 62 62 61 61 62 62 63 64 64 65 66 66 65 66 66 66 67 67 67 68 73 72 72 72 71 70 70 70 71 70 70 70 70 71 72 73 75 75 76 77 78 79 80 81 81 82 85 87 90 93 95 96 98 100 101 104 107 109 111 112 115 116 118 118 119 121 125 128 134 136 139 142 144 148 152 156 163 165 167 167 165 164 164 165 164 163 161 158 153 149 145 143 142 138 134 130 127 124 121 118 115 115 115 116 118 119 121 122 120 120 121 121 121 121 121 121 123 126 130 132 132 134 136
58 58 58 58 58 58 58 58 58 58 58 58 58 58 58 59 59 59 59 59 59 59 59 60 60 60 60 60 60 60 60 61 61 61 61 61 61 61 61 61 61 61 61 61 61 61 61 63 63 62 62 62 61 61 61 60 60 60 61 61 62 62 62 63 63 63 62 62 61 61 61 62 62 63 64 64 65 66 66 64 65 65 65 66 66 66 67 71 71 71 70 70 70 70 70 71 70 70 70 70 71 72 73 74 74 75 77 78 79 80 81 81 82 84 87 90 92 94 96 97 98 100 103 106 109 111 112 113 116 119 121 122 123 126 128 133 135 138 141 143 148 153 157 164 166 168 168 167 166 166 167 164 163 161 157 152 146 142 139 138 135 130 127 124 122 119 116 116 117 119 121 122 122 122 122 121 122 124 125 125 123 121 120 124 127 130 132 134 135 137
58 58 58 58 58 58 58 58 58 58 58 58 58 58 58 59 59 59 59 59 59 59 59 60 60 60 60 60 60 60 60 61 61 61 61 61 61 61 61 61 61 61 61 61 61 61 61 63 63 63 62 62 61 61 61 60 60 60 61 61 62 62 62 63 63 63 62 62 61 61 61 62 62 63 64 64 65 66 66 64 64 64 65 65 65 66 66 69 69 69 69 69 69 69 69 71 70 70 70 70 71 72 73 73 74 75 76 78 79 80 80 81 82 84 86 89 92 94 95 96 97 99 102 105 108 111 112 111 115 120 123 124 126 128 129 133 135 138 141 144 148 154 158 166 168 170 170 168 167 168 169 164 163 160 156 151 145 139 136 136 132 128 125 123 120 117 115 118 120 122 124 125 124 122 121 121 123 125 127 127 124 121 119 123 126 130 132 134 135 138
61 61 60 60 59 59 59 58 58 58 59 59 60 60 60 60 60 60 61 61 62 62 62 60 60 60 60 60 60 60 60 61 61 61 61 61 61 61 61 62 62 62 62 62 62 62 62 61 61 61 62 62 63 63 63 61 61 61 61 61 61 61 61 63 63 63 63 63 63 63 63 60 61 61 62 63 64 65 66 62 63 66 68 69 69 69 69 68 68 68 68 69 70 71 71 70 70 71 72 72 73 74 74 74 75 75 76 76 77 77 78 79 80 82 82 82 84 87 89 94 95 97 98 100 103 108 112 113 115 117 120 123 125 128 129 131 134 137 140 145 151 158 163 167 167 168 168 169 169 169 170 168 165 160 155 151 146 141 138 133 131 127 123 120 118 117 116 120 121 123 125 126 126 125 124 126 127 127 128 128 127 126 126 125 128 132 136 138 139 139
61 61 60 60 59 59 59 58 58 59 59 59 60 60 60 60 60 61 61 61 62 62 62 61 61 61 61 61 61 61 61 61 61 61 61 61 61 61 61 62 62 62 62 62 62 62 62 61 61 61 62 62 63 63 63 61 61 61 61 61 61 61 61 63 63 63 63 63 63 63 63 62 62 62 63 64 64 65 65 62 64 66 69 70 71 70 70 69 69 68 68 68 69 70 70 70 70 71 72 72 73 74 74 74 75 75 76 77 77 78 78 77 79 81 82 83 85 89 92 94 96 99 101 102 105 109 112 113 114 116 119 122 125 127 128 131 134 137 141 146 151 158 163 166 166 167 167 167 167 167 167 169 166 161 157 153 149 144 140 133 131 127 123 120 118 117 116 119 121 123 125 127 127 126 126 127 128 128 129 128 128 127 127 128 130 134 138 141 143 143
61 60 60 60 60 59 59 58 59 59 59 60 60 60 60 60 61 61 61 62 62 62 62 62 62 62 62 62 62 62 62 61 61 61 61 61 61 61 61 62 62 62 62 62 62 62 62 61 61 61 62 62 63 63 63 61 61 61 61 61 61 61 61 63 63 63 63 63 63 63 63 63 64 64 64 64 64 64 64 64 65 68 70 72 73 73 72 70 70 69 68 68 68 69 69 70 70 71 72 72 73 74 74 75 75 76 76 77 78 79 79 76 78 81 82 83 86 89 92 93 96 100 103 105 107 110 113 113 114 116 119 122 124 126 127 131 134 139 143 147 152 158 162 165 165 165 164 164 164 164 164 166 163 160 156 153 149 144 141 133 131 127 123 120 118 117 116 118 120 123 125 127 128 128 128 128 129 130 130 130 130 129 129 130 133 137 141 145 147 148
